55.786011 -72.969086 378.389893 5.978824 0.217633 -1.915098 
-7.150391 -97.865082 416.889893 -1.430964 -5.103192 3.370717 
55.774292 -72.469086 378.389893 5.973707 0.438392 -1.837384 
-6.650391 -97.992401 416.889893 -1.009475 -5.259270 3.269634 
56.010986 -74.469086 378.889893 5.962446 0.069910 -1.978547 
56.008057 -73.969086 378.889893 5.990947 0.288243 -1.833356 
55.968445 -73.469086 378.889893 5.995625 0.410006 -1.830992 
56.136414 -73.969086 379.389893 6.036959 0.344249 -1.699407 
56.169006 -74.469086 379.389893 6.004127 0.226229 -1.834428 
56.120422 -73.469086 379.389893 6.040449 0.457814 -1.629542 
-6.150391 -98.073364 416.889893 -1.013135 -5.254902 3.282337 
-5.650391 -98.201202 416.889893 -1.026608 -5.089809 3.477141 
55.928528 -72.969086 378.889893 6.038574 0.378271 -1.689009 
55.907471 -72.469086 378.889893 6.065708 0.476181 -1.547114 
-5.150391 -98.275665 416.889893 -0.590325 -5.216074 3.399318 
56.063904 -72.969086 379.389893 6.070473 0.568063 -1.515814 
56.019409 -72.469086 379.389893 6.086161 0.565969 -1.452604 
-10.480652 -93.969086 413.889893 -5.601619 -0.023364 2.709471 
-10.533081 -93.469086 413.889893 -5.581592 -0.736089 2.761059 
-10.617432 -92.969086 413.889893 -5.579139 -1.388864 2.438891 
-10.796631 -92.469086 413.889893 -5.565508 -1.549852 2.422650 
-10.570496 -92.469086 414.389893 -5.662605 -1.276510 2.394975 
-10.288513 -93.969086 414.389893 -5.879389 0.113436 2.167420 
-10.311096 -93.469086 414.389893 -5.779509 -0.893057 2.174736 
-10.456543 -92.969086 414.389893 -5.748067 -1.489123 2.029959 
-10.110413 -93.969086 414.889893 -5.855082 0.050701 2.253267 
-10.138000 -93.469086 414.889893 -5.811991 -0.813448 2.195895 
-9.900024 -93.969086 415.389893 -5.791255 0.028185 2.381613 
-9.946472 -93.469086 415.389893 -5.719876 -0.695302 2.497949 
-10.263794 -92.969086 414.889893 -5.645150 -1.254024 2.422311 
-10.348389 -92.469086 414.889893 -5.591841 -0.984783 2.685794 
-10.028564 -92.969086 415.389893 -5.609018 -0.866484 2.682211 
-10.083435 -92.469086 415.389893 -5.523324 -0.589939 2.932534 
-10.897400 -91.969086 413.889893 -5.680112 -0.923095 2.507766 
-10.956909 -91.469086 413.889893 -5.710176 -0.729039 2.517005 
-10.672119 -91.969086 414.389893 -5.663672 -0.886929 2.559269 
-10.727356 -91.469086 414.389893 -5.600667 -0.596227 2.776945 
-11.028137 -90.969086 413.889893 -5.706331 -0.685942 2.529509 
-10.797058 -90.969086 414.389893 -5.497716 -0.662466 2.935058 
-10.488892 -90.969086 414.889893 -5.435683 -0.569482 3.089538 
-10.445496 -91.969086 414.889893 -5.472569 -0.614341 2.944415 
-10.463623 -91.469086 414.889893 -5.417090 -0.235097 3.164862 
-10.127014 -91.969086 415.389893 -5.447080 -0.369222 3.099667 
55.553162 -71.969086 377.889893 5.970629 0.468059 -1.896642 
-10.141785 -91.469086 415.389893 -5.512537 -0.510120 2.879754 
-7.150391 -75.969086 416.003174 -3.463153 1.673088 4.962460 
-7.150391 -75.469086 415.855499 -3.202392 1.655600 5.103384 
55.524963 -71.469086 377.889893 5.980177 0.437996 -1.869603 
-10.232666 -90.969086 415.389893 -5.601695 -0.787164 2.729926 
55.709717 -71.969086 378.389893 5.986823 0.585567 -1.810253 
55.672424 -71.469086 378.389893 5.993054 0.439086 -1.835111 
-9.711853 -93.969086 415.889893 -5.892356 0.181868 2.164937 
-9.708618 -93.469086 415.889893 -5.783772 -0.547750 2.290247 
55.482300 -70.969086 377.889893 5.954093 0.517012 -1.933968 
-9.534363 -93.969086 416.389893 -5.976703 0.273946 1.893369 
-9.509583 -93.469086 416.389893 -5.817006 -0.548343 1.978376 
-9.781250 -92.969086 415.889893 -5.836431 -0.750945 2.116808 
-9.834961 -92.469086 415.889893 -5.769958 -0.414084 2.428018 
-9.658997 -92.969086 416.389893 -5.737984 -0.680888 2.170026 
-9.631104 -92.469086 416.389893 -5.806645 -0.152787 2.342186 
-9.394714 -93.969086 416.889893 -6.004755 0.055741 1.842146 
-9.390625 -93.469086 416.889893 -6.074851 -0.243336 1.554556 
55.633301 -70.969086 378.389893 6.002323 0.642962 -1.732204 
-9.439880 -92.969086 416.889893 -5.926031 -0.474406 2.010910 
-9.469116 -92.469086 416.889893 -5.883138 0.028169 2.148876 
-9.864319 -91.969086 415.889893 -5.723513 -0.438200 2.503590 
-9.918518 -91.469086 415.889893 -5.685987 -0.708379 2.564445 
-9.693359 -91.969086 416.389893 -5.742757 -0.390101 2.451186 
-9.707703 -91.469086 416.389893 -5.736050 -0.544009 2.497373 
55.859741 -71.969086 378.889893 6.058336 0.486462 -1.580805 
-10.000061 -90.969086 415.889893 -5.669908 -0.792965 2.586377 
-9.774109 -90.969086 416.389893 -5.676616 -0.661709 2.605434 
55.829773 -71.469086 378.889893 6.070209 0.494408 -1.469348 
55.968262 -71.969086 379.389893 6.104064 0.666783 -1.327283 
-9.443420 -91.969086 416.889893 -5.734143 -0.062595 2.543059 
-9.477539 -91.469086 416.889893 -5.602356 -0.524962 2.791920 
-9.540466 -90.969086 416.889893 -5.565882 -0.678463 2.823736 
55.906128 -71.469086 379.389893 6.140362 0.615486 -1.133439 
55.779175 -70.969086 378.889893 6.039803 0.770390 -1.492882 
55.872803 -70.969086 379.389893 6.155473 0.555760 -1.126683 
-6.650391 -75.469086 416.109283 -3.469722 1.593088 4.857040 
-8.919128 -94.969086 417.889893 -5.260376 -1.423712 2.991124 
-11.301941 -96.469086 412.389893 -5.689404 -0.952201 2.481534 
56.280823 -73.969086 379.889893 6.070320 0.497327 -1.536452 
56.324646 -74.469086 379.889893 6.039291 0.356775 -1.662243 
56.235291 -73.469086 379.889893 6.111307 0.628101 -1.309960 
56.439941 -74.469086 380.389893 6.083266 0.524981 -1.480479 
56.397400 -73.969086 380.389893 6.092306 0.670532 -1.374576 
56.326843 -73.469086 380.389893 6.077040 0.629787 -1.407755 
56.185913 -72.969086 379.889893 6.109870 0.522897 -1.364458 
56.148926 -72.469086 379.889893 6.105793 0.611488 -1.300635 
56.288086 -72.969086 380.389893 6.117060 0.711138 -1.226223 
56.221558 -72.469086 380.389893 6.183144 0.632679 -0.900444 
-8.351379 -85.969086 418.389893 -5.020288 0.680728 3.716169 
-8.275635 -85.469086 418.389893 -4.963243 0.925466 3.737044 
-8.460388 -84.469086 417.889893 -4.892291 1.095183 3.786043 
-8.157532 -84.969086 418.389893 -5.027134 0.923810 3.614766 
-8.087036 -84.469086 418.389893 -5.008704 1.046659 3.639821 
-7.985413 -85.969086 418.889893 -4.981911 0.496897 3.789300 
-7.916870 -85.469086 418.889893 -5.046949 0.780818 3.656150 
-7.588379 -85.969086 419.389893 -4.865642 0.397650 3.954939 
-7.548584 -85.469086 419.389893 -4.853841 0.779886 3.882950 
56.080688 -71.969086 379.889893 6.089837 0.770588 -1.340195 
56.019775 -71.469086 379.889893 6.087100 0.696209 -1.392044 
-7.855286 -84.969086 418.889893 -5.013746 0.895955 3.620210 
56.185669 -71.969086 380.389893 6.168206 0.639829 -0.964732 
-7.707825 -84.469086 418.889893 -4.931589 1.286678 3.668851 
-7.438599 -84.969086 419.389893 -4.742753 0.929665 4.013021 
-7.342834 -84.469086 419.389893 -4.876424 1.008653 3.824340 
56.135132 -71.469086 380.389893 6.156296 0.705565 -0.914099 
-8.333923 -83.969086 417.889893 -4.885875 1.182258 3.765978 
-8.217896 -83.469086 417.889893 -5.023039 1.020044 3.621776 
-7.964172 -83.969086 418.389893 -5.007820 1.019106 3.648246 
55.966614 -70.969086 379.889893 6.130982 0.661629 -1.199358 
-7.897278 -83.469086 418.389893 -5.080706 0.908825 3.558180 
-8.123413 -82.969086 417.889893 -5.041064 1.014928 3.608270 
-8.024292 -82.469086 417.889893 -4.957004 1.207120 3.660294 
56.064453 -70.969086 380.389893 6.143030 0.887407 -0.938267 
-7.770630 -82.969086 418.389893 -4.998878 1.315449 3.570321 
-7.618958 -82.469086 418.389893 -4.942265 1.219792 3.649479 
-7.594177 -83.969086 418.889893 -5.007340 0.955730 3.666804 
-7.516907 -83.469086 418.889893 -4.987178 0.868875 3.720885 
-7.236084 -83.969086 419.389893 -4.955780 0.901478 3.752736 
-7.147156 -83.469086 419.389893 -5.024182 0.965856 3.646919 
-7.422180 -82.969086 418.889893 -4.966118 1.196805 3.647126 
-7.282410 -82.469086 418.889893 -5.015952 1.181600 3.590027 
-7.043823 -82.969086 419.389893 -4.863874 1.250938 3.767097 
-6.895813 -82.469086 419.389893 -4.874460 1.035012 3.808276 
-7.172424 -85.969086 419.889893 -4.838292 0.404646 3.985182 
-7.124390 -85.469086 419.889893 -4.831450 0.850710 3.913308 
-6.791260 -85.969086 420.389893 -4.956960 0.047971 3.833751 
-6.739075 -85.469086 420.389893 -4.986167 0.850777 3.715950 
-6.995728 -84.969086 419.889893 -4.850230 0.838344 3.869495 
-6.959778 -84.469086 419.889893 -4.916896 0.831978 3.790563 
-6.622131 -84.969086 420.389893 -5.094178 0.785806 3.562186 
-6.571716 -84.469086 420.389893 -5.102135 0.882227 3.546669 
-6.387085 -85.969086 420.889893 -5.187507 0.090345 3.517178 
-6.374756 -85.469086 420.889893 -5.189924 0.513959 3.493921 
-6.104675 -85.969086 421.389893 -5.649208 0.743541 2.582342 
-6.062744 -85.469086 421.389893 -5.494816 0.578724 2.980623 
-6.309875 -84.969086 420.889893 -5.288953 0.622004 3.334046 
-6.257141 -84.469086 420.889893 -5.123850 1.035728 3.441921 
-5.991760 -84.969086 421.389893 -5.409430 0.871952 3.051947 
-5.888733 -84.469086 421.389893 -5.269807 1.175683 3.178487 
-6.825500 -83.969086 419.889893 -4.890997 0.783033 3.828234 
-6.150391 -75.469086 416.549805 -3.768326 1.827201 4.668477 
-6.791016 -83.469086 419.889893 -4.834786 1.005810 3.831310 
-6.616211 -82.969086 419.889893 -4.747892 1.333107 3.875676 
-6.501343 -82.469086 419.889893 -4.920718 0.913886 3.783447 
55.210999 -68.469086 377.889893 6.031241 0.770782 -1.576940 
-6.448242 -83.969086 420.389893 -5.016126 0.983654 3.623731 
-6.378418 -83.469086 420.389893 -4.916688 1.079080 3.748365 
-6.235962 -82.969086 420.389893 -5.095529 1.187283 3.449834 
-6.125122 -82.469086 420.389893 -5.165353 0.771405 3.415456 
-6.110901 -83.969086 420.889893 -5.114497 1.160277 3.450521 
-6.018860 -83.469086 420.889893 -5.227930 0.859387 3.370239 
-5.786438 -83.969086 421.389893 -5.341210 0.992108 3.139631 
-5.707214 -83.469086 421.389893 -5.349329 0.876297 3.171527 
-5.957397 -82.969086 420.889893 -5.300767 0.917245 3.218006 
-5.854187 -82.469086 420.889893 -5.248293 1.053005 3.271801 
-5.615601 -82.969086 421.389893 -5.187247 1.123754 3.358809 
-8.235474 -81.969086 417.389893 -4.891920 1.375749 3.683163 
-8.108032 -81.469086 417.389893 -4.872430 1.467357 3.682497 
-8.340942 -80.969086 416.889893 -4.773175 1.661874 3.722675 
-8.135864 -80.469086 416.889893 -4.667373 1.891622 3.756290 
-7.936340 -80.969086 417.389893 -4.741028 1.765180 3.725340 
55.136963 -67.969086 377.889893 6.053767 0.998358 -1.348832 
-7.740906 -80.469086 417.389893 -4.721522 1.800120 3.733764 
55.050537 -67.469086 377.889893 6.054523 1.194454 -1.148901 
-8.374451 -79.969086 416.389893 -4.513258 1.639592 4.051398 
-8.178101 -79.469086 416.389893 -4.384820 1.838907 4.106718 
55.125427 -67.469086 378.389893 6.044807 1.311399 -1.080064 
-7.962830 -78.969086 416.389893 -4.340051 1.781935 4.177371 
-7.928406 -79.969086 416.889893 -4.628549 1.934660 3.773667 
54.941650 -66.969086 377.889893 6.021054 1.383483 -1.135186 
-7.705383 -79.469086 416.889893 -4.481947 2.051643 3.885581 
-7.557983 -79.969086 417.389893 -4.550130 2.057661 3.784878 
-7.300110 -79.469086 417.389893 -4.588301 2.149353 3.712672 
55.035339 -66.969086 378.389893 6.079740 1.186379 -1.035217 
-7.482300 -78.969086 416.889893 -4.442161 1.761264 4.059407 
-7.065552 -78.969086 417.389893 -4.497113 2.233494 3.774536 
55.233765 -67.469086 378.889893 5.971786 1.443183 -1.315919 
55.108704 -66.969086 378.889893 6.020849 1.289664 -1.202252 
55.239502 -66.969086 379.389893 5.939931 1.343421 -1.540964 
-10.150391 -77.969086 414.058197 -3.884886 1.139964 4.792220 
-10.150391 -77.469086 413.901093 -3.798733 1.039755 4.867908 
-6.037476 -75.969086 416.889893 -3.650262 2.413080 4.506474 
-9.650391 -77.969086 414.447052 -3.895111 1.218174 4.776227 
-9.650391 -77.469086 414.307343 -3.895246 1.143432 4.788125 
-10.150391 -76.969086 413.851624 -3.777133 0.958708 4.898273 
-9.650391 -76.969086 414.217468 -3.861280 0.963481 4.858619 
-9.650391 -76.469086 414.084656 -3.945300 1.109800 4.741616 
-9.150391 -76.469086 414.546295 -3.942330 1.119300 4.740739 
-9.150391 -77.469086 414.728058 -4.013709 1.209976 4.677433 
-9.150391 -76.969086 414.613983 -3.967296 0.842211 4.791364 
-9.650391 -75.969086 413.986542 -3.910849 1.124960 4.786307 
-9.650391 -75.469086 413.862549 -4.101553 1.285988 4.575378 
-9.650391 -74.969086 413.713348 -4.233635 1.390299 4.426877 
-9.150391 -75.969086 414.381653 -3.851223 1.256204 4.790317 
-9.150391 -75.469086 414.283356 -3.982376 1.137511 4.720640 
-9.150391 -74.969086 414.132782 -4.005295 1.171013 4.679982 
-9.150391 -74.469086 414.022675 -4.082334 1.122782 4.640968 
-6.744385 -89.969086 421.889893 -5.116827 0.473452 3.571590 
-6.667419 -89.469086 421.889893 -5.379713 1.029141 3.069747 
-6.555298 -88.969086 421.889893 -5.485433 0.970834 2.895368 
-6.480408 -88.469086 421.889893 -5.729329 1.115568 2.290791 
-6.318665 -89.969086 422.389893 -4.637725 -0.150949 4.228535 
-6.370728 -89.469086 422.389893 -4.912549 0.265394 3.759418 
-6.277832 -88.969086 422.389893 -5.232319 0.638662 3.404080 
-6.255310 -88.469086 422.389893 -5.332225 0.489058 3.197518 
-5.650391 -89.969086 423.070557 -3.795201 -0.869425 4.867227 
-5.889771 -89.469086 422.889893 -4.571349 -0.393570 4.289598 
-5.650391 -89.469086 423.157806 -4.048615 -0.573267 4.664125 
-5.150391 -89.969086 423.387177 -2.875579 -1.346532 5.382796 
-5.150391 -89.469086 423.479431 -3.159396 -0.952059 5.340514 
-5.911804 -88.969086 422.889893 -4.786027 0.173892 4.042689 
-5.876343 -88.469086 422.889893 -4.908988 0.259847 3.908733 
-5.650391 -88.969086 423.178558 -4.283051 -0.041104 4.548599 
-5.650391 -88.469086 423.149902 -4.502170 0.081610 4.373201 
-5.150391 -88.969086 423.561768 -3.473511 -0.659140 5.173062 
-5.150391 -88.469086 423.601105 -3.986417 -0.410613 4.833628 
-6.386292 -87.969086 421.889893 -5.904840 0.988166 1.879879 
-6.313110 -87.469086 421.889893 -5.717869 1.393428 1.963830 
-6.192749 -87.969086 422.389893 -5.402407 0.976505 2.936941 
-6.050781 -87.469086 422.389893 -5.405524 1.335232 2.907239 
-6.154846 -86.969086 421.889893 -5.652242 1.958996 1.761815 
-5.965637 -86.469086 421.889893 -5.760069 1.082120 2.074887 
-5.936890 -86.969086 422.389893 -5.589848 1.370869 2.500626 
-5.835815 -86.469086 422.389893 -5.807257 1.045925 2.099646 
-5.845642 -87.969086 422.889893 -5.064242 0.593576 3.660668 
-5.765503 -87.469086 422.889893 -5.237679 0.786049 3.367219 
-5.650391 -87.969086 423.155121 -4.780230 0.287652 4.012893 
-5.399780 -87.469086 423.389893 -4.928173 0.291633 3.876116 
-5.690796 -86.969086 422.889893 -5.485438 0.928862 2.914120 
-5.601135 -86.469086 422.889893 -5.525792 1.069777 2.787996 
-5.410767 -86.969086 423.389893 -5.030761 0.422308 3.640171 
-5.150391 -87.969086 423.646729 -4.242860 -0.589706 4.592687 
-4.992676 -87.469086 423.889893 -4.371516 -0.446623 4.406733 
-4.981506 -86.969086 423.889893 -4.722113 0.411130 4.104302 
-5.650391 -75.469086 416.906067 -3.860129 1.808844 4.477690 
-7.891296 -81.969086 417.889893 -4.960761 1.413527 3.583630 
-7.731628 -81.469086 417.889893 -4.848333 1.647951 3.639914 
-7.523193 -81.969086 418.389893 -4.986988 1.327196 3.575699 
53.102905 -65.969086 373.889893 5.055527 1.272028 -3.484266 
52.977722 -65.469086 373.889893 4.874289 1.455814 -3.672826 
53.466187 -65.969086 374.389893 5.216472 0.932040 -3.362649 
53.410645 -65.469086 374.389893 5.063212 1.490933 -3.097412 
-7.360901 -81.469086 418.389893 -4.949178 1.660207 3.495674 
52.807739 -64.969086 373.889893 5.010131 1.861326 -3.289879 
-7.548401 -80.969086 417.889893 -4.796993 1.842134 3.614443 
52.605286 -64.469086 373.889893 5.156950 1.627022 -3.115083 
53.145996 -64.969086 374.389893 4.912168 2.158573 -3.249662 
52.964844 -64.469086 374.389893 4.983102 1.692143 -3.430515 
53.463501 -64.969086 374.889893 5.288512 1.720190 -2.908897 
53.300232 -64.469086 374.889893 5.172075 1.786900 -3.073381 
-7.341370 -80.469086 417.889893 -4.594165 2.068846 3.750501 
-13.141541 -73.969086 369.389893 -4.145229 0.417884 -4.700850 
-12.650391 -73.969086 368.981598 -3.960662 0.164439 -4.874132 
-12.650391 -73.469086 368.989441 -4.075243 0.425877 -4.746742 
-13.094177 -73.469086 369.389893 -4.322594 0.719807 -4.483472 
-12.447266 -72.969086 368.889893 -4.160431 0.809973 -4.635942 
-13.150391 -72.969086 369.555847 -4.354604 0.902957 -4.436822 
-12.883362 -72.469086 369.389893 -4.369440 0.833309 -4.433257 
-7.190308 -80.969086 418.389893 -4.753455 2.051411 3.539419 
53.745239 -65.969086 374.889893 5.462234 1.446171 -2.738788 
53.593689 -65.469086 374.889893 5.553075 1.533941 -2.459386 
53.991333 -65.969086 375.389893 5.505958 1.503983 -2.623802 
53.859436 -65.469086 375.389893 5.473555 1.409863 -2.741124 
53.733765 -64.969086 375.389893 5.467956 1.574255 -2.636104 
-6.919250 -80.469086 418.389893 -4.624616 2.269098 3.577500 
53.578735 -64.469086 375.389893 5.377383 1.938177 -2.549317 
-7.182678 -81.969086 418.889893 -5.043576 1.317359 3.491283 
-7.020569 -81.469086 418.889893 -4.850745 1.814460 3.545005 
52.494141 -63.969086 373.889893 5.104663 1.692387 -3.221612 
52.290649 -63.469086 373.889893 4.825752 2.145754 -3.392974 
-6.150391 -65.969086 366.710571 -1.516935 1.575738 -5.855700 
-5.650391 -65.969086 366.630066 -0.681261 1.140906 -6.126132 
52.811707 -63.969086 374.389893 5.053175 1.758551 -3.279909 
-5.150391 -65.969086 366.605743 -0.114471 0.641388 -6.247696 
52.610657 -63.469086 374.389893 5.019201 1.876900 -3.276522 
-6.830627 -81.969086 419.389893 -4.840645 1.250961 3.744946 
-6.638062 -81.469086 419.389893 -4.746975 1.986912 3.596666 
53.125305 -63.969086 374.889893 5.211493 1.850177 -2.966126 
53.376648 -63.969086 375.389893 5.380409 1.852444 -2.653014 
-6.810120 -80.969086 418.889893 -4.660719 2.117142 3.633164 
-6.576294 -80.469086 418.889893 -4.808344 2.138695 3.429218 
-6.398193 -80.969086 419.389893 -4.935286 1.955474 3.305011 
-6.221619 -80.469086 419.389893 -5.033759 1.885004 3.246511 
54.210144 -65.969086 375.889893 5.743342 1.365573 -2.133580 
54.094788 -65.469086 375.889893 5.690377 1.538387 -2.100070 
54.370667 -65.969086 376.389893 5.893198 1.434012 -1.616910 
54.237671 -65.469086 376.389893 5.850913 1.664584 -1.560719 
53.941711 -64.969086 375.889893 5.676802 1.788213 -1.978081 
-7.098816 -79.969086 417.889893 -4.578801 1.984486 3.805774 
53.777222 -64.469086 375.889893 5.610656 1.985270 -1.981540 
54.085938 -64.969086 376.389893 5.809740 1.780829 -1.593834 
53.932678 -64.469086 376.389893 5.724563 2.071376 -1.473099 
54.361755 -65.469086 376.889893 5.908350 1.638275 -1.360021 
54.493103 -65.969086 376.889893 5.961669 1.429346 -1.352832 
-6.923035 -79.469086 417.889893 -4.516074 2.094251 3.786847 
-6.688416 -79.969086 418.389893 -4.675525 2.116853 3.605856 
54.214600 -64.969086 376.889893 5.836093 1.971785 -1.153805 
-6.457764 -79.469086 418.389893 -4.580395 2.213814 3.675252 
54.023926 -64.469086 376.889893 5.804753 2.148365 -1.076351 
53.587463 -63.969086 375.889893 5.728759 1.579726 -1.983560 
53.717163 -63.969086 376.389893 5.737380 2.178127 -1.302762 
53.841248 -63.969086 376.889893 5.754019 2.229257 -1.161346 
-14.622192 -69.969086 378.889893 -6.187656 0.584975 -0.833517 
-14.689758 -69.969086 379.389893 -6.219266 0.515672 -0.661554 
-6.625854 -78.969086 417.889893 -4.400873 2.416026 3.774445 
-14.680359 -69.469086 379.389893 -6.217507 0.458740 -0.583653 
-14.610046 -69.469086 378.889893 -6.203916 0.314091 -0.913656 
-14.439880 -69.969086 377.889893 -6.179337 0.189248 -1.070616 
-14.435852 -69.469086 377.889893 -6.198474 0.139972 -1.015299 
-14.558655 -69.969086 378.389893 -6.140841 0.360236 -1.225458 
-14.526184 -69.469086 378.389893 -6.182700 0.250150 -1.086741 
-14.417297 -68.969086 377.889893 -6.165518 0.494532 -1.080230 
-14.354675 -68.469086 377.889893 -6.140765 0.872005 -0.999274 
-14.505615 -68.969086 378.389893 -6.179467 0.527248 -0.948454 
-14.446899 -68.469086 378.389893 -6.146570 0.776599 -1.029477 
-14.564758 -68.969086 378.889893 -6.211913 0.590502 -0.732063 
-14.525085 -68.469086 378.889893 -6.173438 0.822559 -0.642163 
-14.613342 -68.969086 379.389893 -6.214211 0.759011 -0.529172 
-14.545410 -68.469086 379.389893 -6.208289 0.875621 -0.391953 
-14.274292 -67.969086 377.889893 -6.127543 0.893536 -1.033256 
-14.206116 -67.469086 377.889893 -6.130414 0.863639 -1.053980 
-14.378357 -67.969086 378.389893 -6.136607 0.892202 -0.958722 
-14.309937 -67.469086 378.389893 -6.132946 0.948491 -0.875203 
-14.422546 -67.969086 378.889893 -6.158297 1.109695 -0.540685 
-14.345520 -67.469086 378.889893 -6.204194 0.865930 -0.475069 
-14.471191 -67.969086 379.389893 -6.168977 1.002926 -0.631303 
-14.382690 -67.469086 379.389893 -6.165381 0.841390 -0.752641 
-14.727844 -69.969086 379.889893 -6.225130 0.562091 -0.531217 
-14.706543 -69.469086 379.889893 -6.252541 0.443256 -0.401116 
-14.787781 -69.969086 380.389893 -6.222941 0.630691 -0.583257 
-14.738770 -69.469086 380.389893 -6.236473 0.654220 -0.298249 
-14.662659 -68.969086 379.889893 -6.209610 0.794751 -0.365515 
-14.667297 -68.969086 380.389893 -6.204162 0.925775 -0.288001 
-14.825073 -69.969086 380.889893 -6.215622 0.781506 -0.177414 
-14.729370 -69.469086 380.889893 -6.211040 0.701316 -0.118920 
-14.711121 -68.969086 380.889893 -6.224195 0.657657 -0.245964 
-14.627502 -68.469086 380.889893 -6.202329 0.883269 -0.460777 
-14.579712 -68.469086 379.889893 -6.216343 0.857161 -0.286806 
-14.591553 -68.469086 380.389893 -6.217624 0.820910 -0.276610 
-14.524719 -67.969086 379.889893 -6.224507 0.716496 -0.414709 
-14.465088 -67.469086 379.889893 -6.170683 0.956367 -0.566848 
-14.540344 -67.969086 380.389893 -6.247514 0.608548 -0.261927 
-14.494141 -67.469086 380.389893 -6.184323 0.994321 -0.207785 
-14.566650 -67.969086 380.889893 -6.216756 0.829632 -0.346686 
-14.484436 -67.469086 380.889893 -6.203465 0.953801 -0.081256 
-6.224548 -78.969086 418.389893 -4.628004 2.266633 3.593827 
-6.352295 -79.969086 418.889893 -4.912260 2.262754 3.193335 
-6.099792 -79.469086 418.889893 -4.796507 2.457434 3.224280 
-10.727051 -97.969086 412.889893 -5.049228 -2.418352 2.731485 
-6.055786 -79.969086 419.389893 -4.999733 2.133929 3.102742 
-5.781860 -79.469086 419.389893 -4.816250 2.688039 3.008923 
-5.849182 -78.969086 418.889893 -4.706508 2.374628 3.418217 
-5.494629 -78.969086 419.389893 -4.880460 2.607157 2.940570 
-6.419312 -81.969086 419.889893 -5.047105 1.142277 3.550134 
-6.279968 -81.469086 419.889893 -5.102945 1.677520 3.251071 
-6.100159 -81.969086 420.389893 -5.178393 0.716436 3.461691 
-5.995605 -81.469086 420.389893 -5.155573 1.737952 3.058499 
-6.135681 -80.969086 419.889893 -4.978480 1.814644 3.280522 
-5.893494 -80.469086 419.889893 -5.121418 1.839777 3.090752 
-5.749573 -80.969086 420.389893 -5.180637 1.860872 2.868510 
-5.661072 -80.469086 420.389893 -5.400670 1.440619 2.788206 
-5.761230 -81.969086 420.889893 -5.164640 0.836966 3.475405 
-5.674438 -81.469086 420.889893 -5.029095 1.274363 3.511358 
-5.518921 -80.969086 420.889893 -5.111496 1.635627 3.214289 
-5.374878 -80.469086 420.889893 -5.174585 1.493746 3.199643 
-15.137207 -73.969086 381.889893 -6.251903 0.424836 0.432033 
-15.087891 -73.469086 381.889893 -6.233539 0.208429 0.557880 
-15.093140 -73.969086 382.389893 -6.236485 0.531259 0.541269 
-15.057922 -73.469086 382.389893 -6.259351 0.251271 0.438367 
-15.108582 -72.969086 381.889893 -6.255858 0.061394 0.445387 
-15.084290 -72.469086 381.889893 -6.263854 0.379080 0.222285 
-15.058838 -72.969086 382.389893 -6.252586 0.023273 0.607015 
-15.049255 -72.469086 382.389893 -6.242928 0.242291 0.636321 
-15.050415 -73.969086 382.889893 -6.243443 0.426860 0.058217 
-15.032349 -73.469086 382.889893 -6.266434 0.328912 -0.003754 
-15.080688 -73.969086 383.389893 -6.245034 0.452354 -0.419394 
-15.071655 -73.469086 383.389893 -6.234749 0.473560 -0.477612 
-15.006531 -72.969086 382.889893 -6.262729 0.221112 0.333804 
-14.991333 -72.469086 382.889893 -6.250467 0.390779 0.462076 
-15.002502 -72.969086 383.389893 -6.242262 0.540302 -0.246515 
-14.977966 -72.469086 383.389893 -6.262188 0.476794 -0.071420 
-15.046143 -71.969086 381.889893 -6.259194 0.528610 0.090460 
-14.991333 -71.469086 381.889893 -6.247363 0.574585 -0.203120 
-15.031799 -71.969086 382.389893 -6.225835 0.309678 0.648269 
-15.004700 -71.469086 382.389893 -6.258749 0.086111 0.393703 
-14.941772 -70.969086 381.889893 -6.216816 0.649780 -0.487780 
-14.894043 -70.469086 381.889893 -6.250120 0.466786 -0.259767 
-15.021301 -70.969086 382.389893 -6.149756 0.420505 -0.015640 
-14.941345 -70.469086 382.389893 -6.212015 0.811881 -0.169955 
-14.946716 -71.969086 382.889893 -6.229371 0.264784 0.570664 
-14.943359 -71.469086 382.889893 -6.256754 -0.020775 0.426867 
-14.922485 -71.969086 383.389893 -6.245965 0.289643 0.019891 
-14.937195 -71.469086 383.389893 -6.280878 -0.067456 0.133798 
-14.950989 -70.969086 382.889893 -6.258122 0.134839 0.448492 
-14.913391 -70.469086 382.889893 -6.252093 0.455811 0.076376 
-14.941040 -70.969086 383.389893 -6.273246 0.104208 0.238661 
-14.928162 -70.469086 383.389893 -6.245869 0.343402 0.333925 
-15.109802 -73.969086 383.889893 -6.201609 0.595611 -0.559365 
-15.113281 -73.469086 383.889893 -6.234241 0.363627 -0.328575 
-15.182556 -73.969086 384.389893 -6.218291 0.553359 -0.415624 
-15.113037 -73.469086 384.389893 -6.243176 0.488909 -0.349883 
-5.741577 -79.969086 419.889893 -5.134919 2.109375 2.912250 
-15.039368 -72.969086 383.889893 -6.215652 0.654501 -0.570758 
-14.998901 -72.469086 383.889893 -6.221547 0.534461 -0.631580 
-15.085388 -72.969086 384.389893 -6.257401 0.393368 -0.372272 
-15.075745 -72.469086 384.389893 -6.214872 0.447420 -0.362167 
-15.187256 -73.969086 384.889893 -6.251081 0.277116 0.299639 
-15.150940 -73.469086 384.889893 -6.252242 0.437866 0.087545 
-15.125122 -73.969086 385.389893 -6.249168 0.259204 0.310151 
-15.106201 -73.469086 385.389893 -6.260737 0.295706 0.223502 
-15.124451 -72.969086 384.889893 -6.230277 0.521978 -0.041264 
-15.058960 -72.469086 384.889893 -6.261702 0.435444 0.032518 
-15.084229 -72.969086 385.389893 -6.261392 0.389824 0.281077 
-15.051697 -72.469086 385.389893 -6.267967 0.317843 0.234201 
-14.949463 -71.969086 383.889893 -6.234502 0.519697 -0.478665 
-14.929871 -71.469086 383.889893 -6.276729 0.148164 -0.142738 
-15.001770 -71.969086 384.389893 -6.213565 0.752122 -0.536619 
-14.954651 -71.469086 384.389893 -6.250965 0.416419 -0.441666 
-14.920532 -70.969086 383.889893 -6.271523 0.327577 0.028517 
-14.873352 -70.469086 383.889893 -6.243274 0.146384 0.069323 
-14.932251 -70.969086 384.389893 -6.266157 0.391624 -0.206766 
-14.888855 -70.469086 384.389893 -6.255568 0.154927 -0.300941 
-15.035828 -71.969086 384.889893 -6.258990 0.469777 -0.205080 
-15.006714 -71.469086 384.889893 -6.241526 0.456965 -0.338237 
-15.048401 -71.969086 385.389893 -6.258769 0.268128 0.110357 
-14.996948 -71.469086 385.389893 -6.259444 0.335036 -0.130780 
-14.950256 -70.969086 384.889893 -6.246057 0.399886 -0.464858 
-14.943054 -70.469086 384.889893 -6.257419 0.102960 -0.529551 
-14.989136 -70.969086 385.389893 -6.270205 0.210089 -0.298780 
-14.960815 -70.469086 385.389893 -6.252866 0.165125 -0.400964 
-5.480713 -79.969086 420.389893 -5.207782 2.132755 2.767769 
-5.478149 -79.469086 419.889893 -5.092875 2.534399 2.640629 
-16.466125 -69.969086 393.889893 -6.230202 -0.048286 -0.800473 
-16.474243 -69.469086 393.889893 -6.232756 0.048662 -0.690728 
-16.524353 -69.969086 394.389893 -6.179344 0.208894 -1.068948 
-16.512634 -69.469086 394.389893 -6.208000 0.092635 -0.889452 
-16.447815 -68.969086 393.889893 -6.224239 0.047072 -0.765587 
-16.464050 -68.469086 393.889893 -6.214943 0.142251 -0.828160 
-16.533142 -68.969086 394.389893 -6.225544 -0.036359 -0.712962 
-16.502930 -68.469086 394.389893 -6.247317 0.224312 -0.590247 
-16.570190 -68.969086 394.889893 -6.171685 0.296976 -1.013471 
-16.556396 -68.469086 394.889893 -6.215123 0.182893 -0.846671 
-5.918457 -85.969086 421.889893 -5.846490 0.905637 2.104295 
-5.822021 -85.469086 421.889893 -5.712524 0.929305 2.418679 
-5.756897 -85.969086 422.389893 -5.640921 1.182756 2.378382 
-5.612122 -85.469086 422.389893 -5.622956 1.189802 2.523705 
-5.755859 -84.969086 421.889893 -5.609107 1.059413 2.614622 
-5.633667 -84.469086 421.889893 -5.534555 1.351571 2.639051 
-5.526917 -84.969086 422.389893 -5.618746 1.070174 2.595920 
-5.437744 -84.469086 422.389893 -5.436951 1.546482 2.603970 
-5.486023 -85.969086 422.889893 -5.494456 1.252456 2.774467 
-5.392578 -85.469086 422.889893 -5.526559 1.116230 2.755697 
-5.519348 -83.969086 421.889893 -5.464800 1.076519 2.904253 
-5.433960 -83.469086 421.889893 -5.444983 1.111375 2.923535 
-17.001160 -69.969086 397.889893 -6.245809 0.428527 -0.220129 
-16.958496 -69.469086 397.889893 -6.230242 0.684483 0.033173 
-16.976318 -69.969086 398.389893 -6.227524 0.761561 0.221901 
-16.932678 -69.469086 398.389893 -6.237864 0.682981 0.288948 
-16.883606 -68.969086 397.889893 -6.230911 0.793667 0.129308 
-16.827148 -68.469086 397.889893 -6.218512 0.837170 0.225215 
-16.869812 -68.969086 398.389893 -6.213974 0.876590 0.271063 
-16.784851 -68.469086 398.389893 -6.203858 0.861111 0.420816 
-16.971863 -69.969086 398.889893 -6.228682 0.819950 0.091587 
-16.909180 -69.469086 398.889893 -6.246255 0.558228 0.042676 
-16.962830 -69.969086 399.389893 -6.171967 0.930292 0.553261 
-16.881958 -69.469086 399.389893 -6.192004 0.033041 0.726901 
-16.848816 -68.969086 398.889893 -6.153100 0.923745 -0.531475 
-16.759277 -68.469086 398.889893 -6.132900 1.220495 0.336072 
-16.957397 -68.969086 399.389893 -5.570348 0.927722 0.729650 
-16.689331 -68.469086 399.389893 -5.824953 1.883710 0.982870 
-16.880554 -69.969086 399.889893 -6.067771 1.132555 1.164506 
-16.792053 -69.469086 399.889893 -6.020257 0.874706 1.503145 
-16.767456 -69.969086 400.389893 -6.045308 1.171439 1.226895 
-16.682129 -69.469086 400.389893 -6.037136 1.259018 1.188387 
-16.697327 -68.969086 399.889893 -5.715703 1.158822 2.261157 
-16.589417 -68.469086 399.889893 -5.894069 1.419762 1.607969 
-16.557373 -68.969086 400.389893 -5.959969 1.332048 1.446439 
-16.676636 -69.969086 400.889893 -6.052559 1.165067 1.204036 
-17.035645 -73.969086 401.889893 -5.975764 0.116257 1.813408 
-16.992310 -73.469086 401.889893 -6.030096 0.325002 1.722989 
-16.840210 -73.969086 402.389893 -5.967878 -0.002608 1.918162 
-16.857178 -73.469086 402.389893 -5.968779 0.247998 1.898476 
-16.976746 -72.969086 401.889893 -6.007356 0.464700 1.736987 
-16.923035 -72.469086 401.889893 -5.943703 0.877508 1.782218 
-16.813538 -72.969086 402.389893 -5.941557 0.603337 1.942191 
-16.744568 -72.469086 402.389893 -5.827534 0.961932 2.137329 
-16.711121 -73.969086 402.889893 -5.926545 -0.111867 1.982692 
-16.689270 -73.469086 402.889893 -5.942710 0.312333 2.000750 
-16.647034 -72.969086 402.889893 -5.900150 0.761885 1.999302 
-16.823730 -71.969086 401.889893 -5.917558 0.961403 1.873198 
-16.762024 -71.469086 401.889893 -5.915573 0.957243 1.845084 
-16.655823 -71.969086 402.389893 -5.910317 0.807191 1.955251 
-16.587463 -71.469086 402.389893 -5.988573 1.007589 1.569027 
-16.672119 -70.969086 401.889893 -5.815734 1.409461 1.754713 
-16.472961 -70.969086 402.389893 -5.995916 0.858719 1.200988 
-10.885681 -97.469086 412.889893 -5.520073 -1.391967 2.621651 
-12.392212 -68.969086 408.389893 -4.985023 2.162788 3.082146 
-12.231689 -69.469086 408.889893 -4.922522 2.001148 3.350459 
-12.117004 -69.969086 409.389893 -4.899809 1.818631 3.435954 
-11.879944 -69.469086 409.389893 -4.795034 2.228173 3.393670 
-12.018982 -68.969086 408.889893 -4.799379 1.913029 3.570688 
-11.640808 -68.969086 409.389893 -4.842443 2.034074 3.423368 
-12.433533 -72.969086 410.389893 -4.854209 1.888964 3.509847 
-12.247925 -72.469086 410.389893 -4.931843 1.604698 3.533943 
-12.361328 -73.969086 410.889893 -4.564404 1.418619 4.073018 
-12.243896 -73.469086 410.889893 -4.624892 1.307419 4.022432 
-11.912292 -73.969086 411.389893 -4.531695 1.316739 4.147994 
-11.769165 -73.469086 411.389893 -4.494148 1.374820 4.168966 
-12.079224 -72.969086 410.889893 -4.656037 1.616668 3.869492 
-11.899414 -72.469086 410.889893 -4.666009 1.736991 3.814836 
-11.650391 -72.969086 411.335632 -4.474368 1.409914 4.175744 
-11.454895 -72.469086 411.389893 -4.512636 1.520345 4.091728 
-12.312500 -71.469086 409.889893 -4.929448 1.778632 3.441074 
-12.115479 -71.969086 410.389893 -4.836167 1.617897 3.648960 
-11.914368 -71.469086 410.389893 -4.735881 1.730352 3.746637 
-12.104065 -70.969086 409.889893 -4.895430 1.929674 3.432036 
-11.914917 -70.469086 409.889893 -4.801222 1.903096 3.572793 
-11.737915 -70.969086 410.389893 -4.719198 1.851396 3.706569 
-11.536926 -70.469086 410.389893 -4.659184 1.971875 3.717633 
-11.683716 -71.969086 410.889893 -4.623719 1.702562 3.887575 
-11.537842 -71.469086 410.889893 -4.709733 1.678182 3.784894 
-11.281494 -71.969086 411.389893 -4.560284 1.534216 4.033411 
-11.124634 -71.469086 411.389893 -4.472416 1.671128 4.046160 
-11.313354 -70.969086 410.889893 -4.569803 1.943098 3.847398 
-11.115112 -70.469086 410.889893 -4.627325 1.835480 3.833085 
-10.892578 -70.969086 411.389893 -4.504984 1.938980 3.925829 
-10.693909 -70.469086 411.389893 -4.736243 1.619657 3.787105 
-11.454712 -73.969086 411.889893 -4.451825 1.257721 4.248086 
-11.150391 -73.469086 412.046661 -4.276163 1.356227 4.392939 
-11.150391 -73.969086 412.199646 -4.125026 0.883688 4.606336 
-10.650391 -73.469086 412.471649 -3.999349 1.218915 4.682684 
-10.650391 -72.969086 412.343994 -4.164238 1.264956 4.529437 
-11.154175 -72.969086 411.889893 -4.360961 1.408683 4.287009 
55.910645 -65.969086 385.889893 5.644540 2.702526 0.486679 
-10.989136 -72.469086 411.889893 -4.305760 1.486451 4.315978 
55.665344 -65.469086 385.889893 5.584529 2.846625 0.343794 
-10.650391 -72.469086 412.200470 -4.238770 1.346036 4.436998 
55.834473 -65.969086 386.389893 5.586809 2.727322 0.887718 
-10.650391 -73.969086 412.624084 -4.010916 0.934950 4.717987 
55.613464 -65.469086 386.389893 5.642416 2.624098 0.832124 
-10.150391 -73.969086 413.020844 -3.970515 1.011932 4.762053 
-10.150391 -73.469086 412.899139 -4.074816 0.960485 4.670773 
-10.150391 -72.969086 412.833923 -4.083216 1.081697 4.619998 
-10.150391 -72.469086 412.676300 -4.085332 1.291644 4.593742 
-10.150391 -71.969086 412.548798 -4.127063 1.228124 4.565954 
-10.805237 -71.969086 411.889893 -4.370463 1.553069 4.235622 
55.753967 -65.969086 386.889893 5.578605 2.768669 0.795737 
-10.612915 -71.469086 411.889893 -4.400987 1.590245 4.185044 
55.523376 -65.469086 386.889893 5.571582 2.744004 0.935945 
-10.441956 -70.969086 411.889893 -4.547649 1.365803 4.102738 
55.695313 -65.969086 387.389893 5.517924 2.948271 0.467655 
-10.150391 -71.469086 412.409790 -4.189696 1.576019 4.370738 
-10.345520 -70.469086 411.889893 -4.193067 1.543187 4.195446 
-10.150391 -70.969086 412.199341 -4.157390 1.608498 4.416674 
-9.650391 -70.469086 412.436523 -3.895545 1.616598 4.650497 
-9.650391 -69.969086 412.281189 -4.006582 1.670128 4.531257 
-9.650391 -71.969086 412.956635 -3.889508 1.261414 4.768958 
-9.650391 -71.469086 412.839264 -3.829082 1.499228 4.728705 
-9.650391 -70.969086 412.636108 -3.958300 1.826320 4.524878 
-9.150391 -70.969086 413.041260 -3.622240 1.597537 4.878814 
55.660278 -65.969086 387.889893 5.393147 3.159440 0.611817 
55.583008 -65.969086 388.389893 5.176924 3.418508 0.988476 
57.111877 -69.469086 389.889893 5.744789 2.401857 0.752143 
57.289734 -69.969086 389.889893 5.873878 2.165503 0.507888 
57.031128 -69.469086 390.389893 5.573187 2.695795 1.043354 
57.253418 -69.969086 390.389893 5.769195 2.366099 0.725358 
56.867249 -68.969086 389.889893 5.614944 2.593760 1.082649 
56.649658 -68.469086 389.889893 5.491700 2.727358 1.336449 
56.777649 -68.969086 390.389893 5.462399 2.823922 1.268961 
56.503174 -68.469086 390.389893 5.304205 2.963966 1.598176 
57.178284 -69.969086 390.889893 5.592411 2.613332 1.070000 
56.916565 -69.469086 390.889893 5.422269 2.862821 1.366998 
57.042664 -69.969086 391.389893 5.380774 2.975688 1.246417 
56.784790 -69.469086 391.389893 5.316093 3.010200 1.455324 
56.347778 -68.469086 390.889893 5.121788 3.126836 1.846996 
56.133179 -68.469086 391.389893 4.847987 3.399927 2.094807 
56.482422 -68.969086 391.389893 5.061757 3.267791 1.771546 
56.643555 -68.969086 390.889893 5.286833 3.017611 1.547883 
56.106628 -67.469086 389.889893 5.250092 2.949502 1.773595 
56.385071 -67.969086 389.889893 5.361792 2.901836 1.496786 
56.219421 -67.969086 390.389893 5.173990 3.077310 1.794682 
55.903381 -67.469086 390.389893 5.016380 3.157640 2.079773 
55.824829 -66.969086 389.889893 5.064979 3.118025 1.981958 
55.591370 -66.969086 390.389893 4.834480 3.255945 2.339429 
56.041992 -67.969086 390.889893 4.909457 3.245681 2.154887 
55.690979 -67.469086 390.889893 4.780213 3.306049 2.375705 
55.770813 -67.969086 391.389893 4.693057 3.422027 2.387643 
56.947205 -69.969086 391.889893 5.229824 3.136891 1.456940 
56.636414 -69.469086 391.889893 5.071022 3.249254 1.771776 
56.760803 -69.969086 392.389893 4.980557 3.290542 1.958780 
56.441833 -69.469086 392.389893 4.978044 3.354337 1.838573 
56.297119 -68.969086 391.889893 4.823422 3.466795 2.029650 
55.924805 -68.469086 391.889893 4.681222 3.568593 2.187401 
56.053101 -68.969086 392.389893 4.579368 3.710750 2.159441 
56.294250 -69.469086 392.889893 5.207704 3.212714 1.240391 
56.556030 -69.969086 392.889893 5.133934 3.126772 1.776327 
55.849609 -69.000854 392.889893 4.502207 3.810780 -0.042363 
58.176575 -72.469086 393.889893 5.237940 3.443709 0.305674 
58.472046 -72.969086 393.889893 5.524442 2.988188 0.004374 
58.127014 -72.469086 394.389893 5.078799 3.647352 0.607073 
58.483582 -72.969086 394.389893 5.354775 3.188929 0.317251 
-15.508301 -69.969086 403.889893 -5.298115 1.676635 2.930796 
-15.664001 -70.469086 403.889893 -5.304720 1.726865 2.887759 
58.715881 -73.469086 394.889893 5.555139 2.893453 0.339954 
58.686096 -73.469086 395.389893 5.291056 3.117329 0.871195 
58.062988 -72.469086 394.889893 5.059896 3.624588 0.821301 
58.408997 -72.969086 394.889893 5.158658 3.487911 0.805352 
58.307800 -72.969086 395.389893 5.050793 3.573954 1.086591 
57.966675 -72.469086 395.389893 4.964844 3.640680 1.204985 
57.005066 -70.969086 393.889893 4.804263 3.930007 0.722872 
57.435791 -71.469086 393.889893 4.860275 3.843551 1.023919 
56.988403 -70.969086 394.389893 4.764408 3.946494 0.823636 
57.318848 -71.469086 394.389893 4.975774 3.701088 0.801113 
56.844910 -70.969086 394.889893 4.353233 4.203703 1.609088 
57.268616 -71.469086 394.889893 4.770024 3.954911 0.976569 
56.849609 -71.196167 395.389893 4.131911 4.392544 1.755961 
57.122681 -71.469086 395.389893 4.438071 4.206986 1.436486 
57.822876 -71.969086 393.889893 5.025168 3.705004 0.659792 
57.757507 -71.969086 394.389893 4.859140 3.921881 0.644395 
57.689270 -71.969086 394.889893 4.861787 3.886297 0.796149 
57.588867 -71.969086 395.389893 4.748724 3.903617 1.222072 
58.538391 -73.469086 395.889893 5.136713 3.358176 1.337953 
58.419006 -73.469086 396.389893 5.081677 3.391959 1.415668 
57.806641 -72.469086 395.889893 4.949330 3.614519 1.346517 
58.202698 -72.969086 395.889893 4.977272 3.595775 1.293735 
58.052063 -72.969086 396.389893 4.916028 3.617418 1.487788 
57.690857 -72.469086 396.389893 4.690793 3.787259 1.659877 
58.251099 -73.469086 396.889893 4.949737 3.599216 1.402482 
58.605103 -73.969086 396.889893 5.009146 3.616401 1.097071 
57.894104 -72.969086 396.889893 4.706743 3.759809 1.748330 
57.451050 -72.469086 396.889893 4.479736 3.954390 1.935010 
56.956421 -71.469086 395.889893 4.213685 4.320267 1.709446 
57.349609 -71.867706 395.889893 4.456283 4.105813 1.605945 
57.349609 -72.096863 396.389893 4.339184 4.102309 1.945955 
56.707581 -71.469086 396.389893 4.268716 4.158709 1.970802 
56.349609 -70.927185 395.889893 3.883644 4.691468 1.532699 
56.349609 -71.081390 396.389893 3.885682 4.508408 1.872699 
57.006042 -71.969086 396.889893 4.188484 4.169244 2.095313 
56.349609 -71.320618 396.889893 3.666416 4.464713 2.318877 
55.849609 -71.045502 396.889893 3.008832 4.851269 2.477138 
54.907898 -68.969086 394.389893 3.872241 4.061331 2.820160 
54.349609 -68.393127 394.389893 3.677292 3.891147 3.225609 
54.349609 -68.830536 394.889893 3.550087 4.108583 3.155452 
54.849609 -69.546173 395.389893 3.142707 4.992933 1.930607 
53.849609 -67.997925 394.389893 3.450495 4.069824 3.313090 
53.849609 -68.811707 395.389893 3.410410 4.161232 3.230554 
54.349609 -69.195282 395.389893 3.287959 4.515203 2.859851 
53.849609 -68.382172 394.889893 3.462557 4.062614 3.302458 
53.349609 -67.977325 394.889893 3.584796 4.046014 3.187485 
54.849609 -69.239105 394.889893 3.540809 4.407606 2.732391 
52.349609 -66.702179 394.389893 2.891147 4.027489 3.830466 
53.349609 -67.135773 393.889893 3.635454 3.894393 3.322871 
52.849609 -67.051270 394.389893 3.190192 3.962539 3.584230 
53.278198 -67.469086 394.389893 3.625997 3.885860 3.346411 
52.849609 -67.469086 394.811218 2.989600 4.137041 3.630826 
53.349609 -68.332001 395.389893 3.321457 3.974762 3.455811 
52.349609 -67.616608 395.389893 2.741988 4.409887 3.508691 
52.849609 -67.973755 395.389893 2.965910 4.024983 3.798116 
52.349609 -66.969086 394.621368 2.769139 3.711281 4.242433 
51.849609 -66.969086 394.971283 3.033386 3.899776 3.868112 
52.349609 -67.273010 394.889893 2.620187 4.215293 3.759205 
51.849609 -67.347351 395.389893 2.845104 4.351475 3.495989 
53.849609 -67.595490 393.889893 3.651526 3.969233 3.218340 
54.349609 -68.028656 393.889893 3.821547 4.074152 2.860355 
53.349609 -68.816345 395.889893 2.934926 4.339709 3.454080 
52.849609 -68.511749 395.889893 2.889678 4.086003 3.738280 
52.849609 -68.883728 396.389893 2.944819 4.604074 3.070015 
53.349609 -69.173615 396.389893 2.871838 4.617495 3.145271 
52.349609 -68.565430 396.389893 3.081476 4.408915 3.139350 
53.349609 -69.498871 396.889893 2.759673 4.774429 3.009282 
51.849609 -68.572418 396.889893 2.712280 4.554037 3.356832 
52.349609 -68.800659 396.889893 2.688000 4.644328 3.043139 
52.849609 -69.211639 396.889893 3.142907 4.537898 2.960420 
54.349609 -69.758301 396.389893 2.443129 4.970514 2.966587 
54.349609 -69.464081 395.889893 2.570629 5.018182 2.715054 
53.849609 -69.504913 396.389893 2.802026 4.759752 2.964108 
54.849609 -69.603912 395.889893 2.384485 4.872618 2.073304 
54.849609 -69.969086 396.343903 2.733160 4.560873 3.311735 
53.849609 -69.151672 395.889893 3.044544 4.557761 3.067444 
53.849609 -69.770203 396.889893 2.731759 4.833516 2.916989 
54.349609 -70.060669 396.889893 2.705178 4.705286 3.155330 
-10.976440 -96.969086 412.889893 -5.665783 -1.144259 2.458757 
51.849609 -67.705292 395.889893 2.708243 4.364677 3.592104 
52.349609 -68.076843 395.889893 3.135799 3.919007 3.775685 
51.849609 -68.141785 396.389893 2.948180 4.156601 3.657946 
-11.092773 -96.469086 412.889893 -5.661944 -0.824257 2.536861 
50.849609 -65.469086 394.467377 3.583513 2.267568 4.574141 
50.849609 -64.969086 394.312286 3.690033 1.262255 4.922409 
49.829590 -65.469086 395.389893 4.032957 2.162184 4.292443 
49.849609 -65.969086 395.677887 3.409940 2.951937 4.357941 
50.349609 -65.469086 394.869843 3.820753 2.430069 4.243664 
50.849609 -66.058685 394.889893 3.470266 3.555855 3.788159 
50.349609 -65.969086 395.310547 3.246348 3.559739 4.013190 
50.349609 -64.969086 394.673676 3.958457 1.154130 4.654963 
49.849609 -64.969086 395.171753 4.173203 1.456245 4.459191 
49.349609 -65.969086 396.038391 3.195263 2.815122 4.590265 
48.860657 -65.969086 396.389893 3.128377 3.066987 4.490670 
48.849609 -65.469086 396.099304 3.184908 2.154642 4.920400 
48.349609 -65.469086 396.449799 2.779436 2.355022 5.098632 
49.349609 -65.469086 395.813660 3.405368 2.121874 4.815400 
48.349609 -64.969086 396.266907 2.714634 1.784647 5.343147 
49.349609 -64.969086 395.601624 3.687081 1.577828 4.824131 
48.849609 -64.969086 395.937988 3.323104 1.494117 5.110945 
47.849609 -65.469086 396.666199 1.868663 2.753501 5.307768 
47.849609 -65.969086 397.005463 1.896039 3.263806 4.943705 
48.349609 -65.969086 396.712921 2.704903 3.104422 4.734197 
53.361450 -64.469086 390.889893 4.957420 2.877065 2.395324 
53.163574 -64.469086 391.389893 5.275589 2.502373 2.307941 
53.437744 -64.969086 391.389893 4.699276 3.179084 2.648415 
55.091553 -65.969086 389.889893 4.579987 3.820529 1.974304 
54.665710 -65.469086 389.889893 4.720231 3.602250 2.029263 
54.872192 -65.969086 390.389893 4.607218 3.623291 2.236557 
54.456299 -65.469086 390.389893 4.605912 3.626539 2.251863 
54.320618 -64.969086 389.889893 4.699811 3.530665 2.209795 
53.917175 -64.469086 389.889893 4.652808 3.600408 2.201769 
54.080627 -64.969086 390.389893 4.518334 3.597636 2.450767 
53.665527 -64.469086 390.389893 4.576731 3.481297 2.523891 
53.841064 -65.469086 391.389893 4.264028 3.577005 2.914580 
54.263000 -65.969086 391.389893 4.359801 3.491542 2.873356 
54.613586 -65.969086 390.889893 4.454546 3.466986 2.702256 
54.179016 -65.469086 390.889893 4.353258 3.623537 2.714805 
53.770142 -64.969086 390.889893 4.354145 3.561180 2.797663 
-15.343262 -69.469086 403.889893 -5.183646 1.634194 3.146287 
53.191711 -64.969086 391.889893 4.991682 2.760361 2.630128 
53.487732 -65.469086 391.889893 4.455296 3.428222 2.741623 
52.935181 -64.469086 391.889893 5.190650 2.343265 2.640135 
53.190430 -65.469086 392.389893 4.498426 3.006426 3.176578 
52.909973 -64.969086 392.389893 4.756012 2.546080 3.194372 
52.793884 -65.469086 392.889893 4.267035 2.809079 3.648181 
53.154114 -65.969086 392.889893 4.030729 3.379634 3.418108 
52.349609 -64.969086 393.075378 4.371398 2.106263 3.985162 
53.938660 -65.969086 391.889893 4.245186 3.581172 2.930970 
53.565308 -65.969086 392.389893 4.173758 3.465603 3.157589 
-15.401855 -70.469086 404.389893 -5.187362 1.773437 3.051682 
-15.239990 -69.969086 404.389893 -4.984246 1.858176 3.289043 
-15.022888 -69.469086 404.389893 -4.822599 1.908189 3.539893 
-15.206360 -68.969086 403.889893 -5.122809 1.713572 3.158865 
31.849609 -67.969086 399.329742 -0.826514 1.985726 5.889760 
31.849609 -67.469086 399.140045 -0.734784 2.051671 5.890707 
32.349609 -67.469086 399.208893 -0.700973 2.046742 5.896028 
32.349609 -67.969086 399.364868 -0.531721 1.942353 5.948192 
32.849609 -67.969086 399.423950 -0.839981 1.912595 5.923963 
32.849609 -67.469086 399.256470 -0.831964 1.908130 5.919832 
33.349609 -67.469086 399.349731 -0.775779 1.916559 5.924493 
31.849609 -66.969086 398.980103 -0.484541 1.624340 6.043987 
32.349609 -66.969086 399.020386 -0.672034 1.760686 5.967356 
32.849609 -66.969086 399.101471 -0.831845 2.012737 5.891921 
33.349609 -66.969086 399.179474 -0.799360 2.203160 5.821671 
33.849609 -66.969086 399.235352 -0.276181 2.031059 5.914299 
33.849609 -67.469086 399.378174 -0.253508 2.039918 5.932577 
34.349609 -67.469086 399.398773 -0.216796 2.184008 5.885141 
34.349609 -66.969086 399.230408 -0.070161 2.058758 5.934910 
34.849609 -66.969086 399.240967 -0.266877 2.135634 5.902064 
34.849609 -67.469086 399.413910 -0.368148 2.277554 5.830098 
31.849609 -69.969086 400.070526 -0.856210 2.122176 5.844201 
32.349609 -69.969086 400.156891 -0.595458 2.253137 5.784290 
31.849609 -69.469086 399.847778 -0.410504 2.278575 5.817323 
32.349609 -69.469086 399.901062 -0.459403 2.657218 5.669188 
32.849609 -69.969086 400.175293 -1.056098 2.684646 5.530706 
33.349609 -69.969086 400.330292 -1.439787 2.880763 5.391819 
32.849609 -69.469086 399.946442 -0.927072 2.732371 5.566549 
33.349609 -69.469086 400.063049 -1.426640 2.648648 5.511393 
31.849609 -68.969086 399.696167 -0.478404 2.125119 5.872139 
32.349609 -68.969086 399.706848 0.036292 2.070410 5.927725 
31.849609 -68.469086 399.487518 -0.890814 2.181889 5.818352 
32.349609 -68.469086 399.540710 -0.363423 1.971721 5.949629 
32.849609 -68.969086 399.679626 -0.834596 2.087433 5.677034 
33.349609 -68.969086 399.841522 -1.388515 2.299665 5.671762 
32.849609 -68.469086 399.579468 -0.896108 1.565706 6.010463 
33.349609 -68.469086 399.685181 -0.962465 1.894287 5.888826 
33.849609 -69.969086 400.446960 -1.347301 2.771470 5.472456 
33.849609 -69.469086 400.214142 -1.327085 2.746259 5.476236 
34.349609 -69.969086 400.573578 -0.981524 2.876273 5.482764 
33.849609 -68.969086 399.951294 -1.187963 2.631689 5.577573 
33.849609 -68.469086 399.736359 -0.793654 2.215728 5.820423 
34.349609 -68.469086 399.812958 -0.572205 2.594177 5.683665 
34.349609 -68.969086 400.049744 -0.882105 2.700740 5.602003 
