-14.932495 -67.558533 506.114197 -6.116168 0.870409 -0.936691 
-14.824829 -67.058533 506.114197 -6.131362 0.873475 -1.000312 
-14.786133 -66.558533 506.114197 -6.176156 0.446697 -1.028268 
-14.985229 -67.558533 506.614197 -6.098664 0.895755 -1.173185 
-14.915039 -67.058533 506.614197 -6.111345 0.887140 -1.150063 
-14.853516 -66.558533 506.614197 -6.186359 0.674795 -0.865188 
34.337402 -65.127075 492.614197 0.412464 -5.058072 -3.693192 
65.312622 -53.058533 510.614197 5.179001 -1.623307 3.089111 
-14.761719 -66.058533 506.114197 -6.228766 0.018983 -0.767560 
-14.789185 -65.558533 506.114197 -6.210946 -0.016047 -0.589515 
-14.798706 -66.058533 506.614197 -6.224284 0.335778 -0.668799 
-14.799683 -65.558533 506.614197 -6.269974 0.090496 -0.370232 
-15.104370 -67.558533 507.114197 -6.087173 0.915152 -1.244420 
-15.019531 -67.058533 507.114197 -6.056940 1.124259 -1.230211 
-14.918701 -66.558533 507.114197 -6.113249 0.898271 -1.063390 
65.522705 -52.558533 510.614197 5.064728 -2.224940 2.965201 
-15.118164 -67.058533 507.614197 -6.102640 1.009022 -1.089119 
29.337402 -71.558533 500.846375 0.213350 -4.034678 -4.760398 
-15.034424 -66.558533 507.614197 -6.067451 1.092755 -1.181792 
32.337402 -64.259094 492.114197 -1.982887 -4.695193 -3.643541 
-14.869873 -66.058533 507.114197 -6.203259 0.505932 -0.854656 
-14.838623 -65.558533 507.114197 -6.235981 0.282660 -0.692328 
-14.937988 -66.058533 507.614197 -6.168940 0.775359 -0.841190 
-14.902222 -65.558533 507.614197 -6.174248 0.886997 -0.212469 
-14.758179 -65.058533 506.114197 -6.239573 0.437708 -0.491637 
-14.709106 -64.558533 506.114197 -6.223672 0.745165 -0.380092 
-10.842407 -63.058533 496.114197 -5.345765 0.537389 -2.469290 
-10.754883 -63.558533 496.114197 -5.817653 -0.146073 -2.267705 
-10.972656 -63.058533 496.614197 -5.973085 0.197308 -1.813549 
-14.780640 -65.058533 506.614197 -6.255857 0.428341 -0.372107 
-14.731934 -64.558533 506.614197 -6.152399 1.123242 0.028178 
-14.638062 -64.058533 506.114197 -6.087674 1.378034 -0.061483 
-14.597046 -64.058533 506.614197 -6.013304 1.749675 0.497330 
-14.816895 -65.058533 507.114197 -6.184916 0.869312 -0.104096 
-14.703491 -64.558533 507.114197 -6.073423 1.563550 0.340631 
-14.790405 -65.058533 507.614197 -6.136016 1.329622 0.206103 
-14.679932 -64.558533 507.614197 -5.999052 1.773623 0.405992 
66.334717 -52.058533 509.614197 5.255452 -1.735313 2.958343 
66.081055 -52.058533 510.114197 5.102911 -2.145846 2.948078 
-14.554932 -64.058533 507.114197 -5.943163 1.948104 0.576370 
-14.495972 -64.058533 507.614197 -5.864482 2.163793 0.627665 
66.263672 -51.558533 510.114197 5.400115 -1.976814 2.526041 
-10.956299 -63.558533 496.614197 -5.894601 0.129358 -2.147047 
-12.205200 -61.058533 500.114197 -5.125685 1.425125 -3.325655 
65.747925 -52.058533 510.614197 4.961550 -2.421695 2.969218 
-15.195923 -67.058533 508.114197 -6.163338 0.990117 -0.571108 
-15.113770 -66.558533 508.114197 -6.126491 1.170410 -0.541998 
-15.203369 -67.058533 508.614197 -6.148877 1.156722 -0.395299 
66.012085 -51.558533 510.614197 5.044837 -2.402176 2.866934 
-15.122314 -66.558533 508.614197 -6.181492 1.080179 -0.277296 
65.042969 -53.058533 511.114197 5.457212 -1.834747 2.373023 
-14.988281 -66.058533 508.114197 -6.116842 1.337083 -0.459845 
-14.875610 -65.558533 508.114197 -6.134087 1.283996 -0.075776 
-15.032227 -66.058533 508.614197 -6.114851 1.361675 -0.450128 
-14.904785 -65.558533 508.614197 -6.062489 1.624584 -0.067387 
-15.260132 -67.058533 509.114197 -6.127983 1.189290 0.019134 
-15.145874 -66.558533 509.114197 -6.191150 1.039598 -0.122360 
-12.032959 -60.558533 500.114197 -5.222788 1.277125 -3.161667 
-15.074341 -66.058533 509.114197 -6.038784 1.522678 -0.012168 
64.337402 -63.706909 505.614197 -0.432127 -6.053679 -0.274644 
64.837402 -63.664917 505.614197 -0.643932 -6.114522 -0.805913 
64.337402 -63.663940 506.114197 -0.869452 -6.149904 -0.481723 
64.837402 -63.806152 506.114197 -0.706999 -6.016682 -0.601392 
65.337402 -63.751526 505.614197 -0.648618 -6.222010 -0.503349 
65.337402 -63.778931 506.114197 -0.389824 -6.143312 -0.833957 
64.337402 -63.717468 506.614197 -0.558292 -6.197845 -0.661831 
64.837402 -63.778931 506.614197 -0.889790 -6.175589 -0.355437 
65.337402 -63.923584 506.614197 -1.365801 -5.971262 -0.761917 
65.837402 -63.798523 505.614197 -0.447502 -6.255029 -0.326231 
65.837402 -63.810608 506.114197 -0.344279 -6.048281 -1.253158 
66.337402 -63.833862 505.614197 1.675112 -5.501280 -0.502972 
66.337402 -63.835815 506.114197 1.670536 -5.840672 -0.542121 
65.837402 -64.012695 506.614197 0.214481 -5.856789 -0.662539 
66.337402 -63.854492 506.614197 2.264296 -5.805037 -0.525254 
-14.883301 -65.558533 509.114197 -5.940754 2.012132 0.169854 
-10.652710 -62.558533 496.114197 -5.284132 1.625106 -2.959691 
-10.874756 -62.558533 496.614197 -5.618321 1.341878 -2.457517 
64.837402 -63.838623 507.114197 -0.637277 -6.166048 -0.900812 
64.337402 -63.792847 507.114197 -0.379261 -6.046924 -1.503277 
65.337402 -63.913269 507.114197 -1.036637 -6.141550 -0.607379 
64.337402 -63.968872 507.614197 -0.217292 -5.995206 -0.762447 
64.837402 -63.868774 507.614197 -0.213002 -6.050604 -0.569626 
65.337402 -64.006226 507.614197 -1.016325 -6.132008 -0.444202 
65.837402 -63.990295 507.114197 -0.249989 -6.186019 -0.776407 
66.337402 -63.960144 507.114197 2.027740 -5.556779 -1.461628 
-14.788696 -65.058533 508.114197 -6.092299 1.481680 0.129100 
-14.632690 -64.558533 508.114197 -5.935602 1.990411 0.520500 
65.837402 -64.080933 507.614197 -0.833825 -6.151125 -0.228994 
66.337402 -64.141418 507.614197 1.885595 -4.761934 -0.179114 
-14.767578 -65.058533 508.614197 -5.947748 1.956967 0.387675 
-14.571411 -64.558533 508.614197 -5.917592 1.972619 0.656337 
-14.456055 -64.058533 508.114197 -5.856225 2.239534 0.390391 
-14.433105 -64.058533 508.614197 -5.929536 2.019843 0.259964 
-14.733521 -65.058533 509.114197 -5.899887 2.127951 0.256434 
-14.521729 -64.558533 509.114197 -5.940623 1.884794 0.151803 
64.857544 -53.058533 511.614197 5.734444 -1.665072 1.641405 
65.256958 -52.558533 511.114197 5.328115 -2.329997 2.328844 
65.083252 -52.558533 511.614197 5.444963 -2.456645 1.942612 
66.868774 -63.558533 506.114197 4.368690 -3.558370 -0.517800 
66.883179 -63.558533 506.614197 4.645460 -3.391054 -0.026659 
-14.415283 -64.058533 509.114197 -6.090368 1.526888 0.050798 
-15.106445 -71.058533 509.614197 -6.120263 -1.329946 0.386656 
-14.993164 -71.558533 509.614197 -6.046242 -1.613639 0.517974 
-15.100586 -71.058533 510.114197 -6.047957 -1.435863 0.584167 
-14.924438 -71.558533 510.114197 -5.952309 -1.843406 0.734946 
-15.218262 -70.558533 509.614197 -6.182073 -1.011675 0.389464 
-15.181396 -70.558533 510.114197 -6.175278 -0.820332 0.708875 
-14.876099 -71.558533 510.614197 -5.938726 -1.872336 0.818088 
-15.031372 -71.058533 510.614197 -6.027807 -1.288862 1.024321 
-15.097168 -70.558533 510.614197 -6.112250 -0.958208 1.092090 
-12.527832 -61.058533 500.614197 -5.221815 1.627169 -3.081851 
-15.278198 -70.058533 509.614197 -6.222978 -0.664135 0.514074 
-15.214478 -70.058533 510.114197 -6.204454 -0.698006 0.558985 
-15.334351 -69.558533 509.614197 -6.241092 -0.567805 0.335113 
-15.302002 -69.558533 510.114197 -6.163260 -0.688159 0.797275 
32.337402 -63.838684 491.614197 -2.528389 -4.682808 -3.311283 
-15.180298 -70.058533 510.614197 -6.154977 -0.579486 0.970959 
-15.183350 -69.558533 510.614197 -6.142434 -0.221794 1.247490 
-14.792236 -71.558533 511.114197 -5.923391 -1.762930 1.119105 
-14.924927 -71.058533 511.114197 -6.037768 -1.231478 1.187419 
30.837402 -63.473999 492.114197 -1.599690 -4.990712 -3.086752 
-14.998779 -70.558533 511.114197 -6.099898 -1.035984 1.073659 
-12.390381 -60.558533 500.614197 -5.178508 1.891229 -2.873776 
56.837402 -60.058533 482.836609 2.318228 -1.860859 -5.267496 
56.837402 -60.432251 483.114197 0.697783 -4.865786 -2.439832 
56.337402 -60.058533 482.605652 1.639883 -2.874425 -4.496784 
56.337402 -60.393127 483.114197 -0.087840 -5.723213 -2.276045 
57.337402 -60.058533 483.044006 2.495226 -1.960153 -4.990201 
56.337402 -59.558533 482.583435 3.146632 -0.414917 -5.382781 
56.837402 -59.558533 482.828308 2.510473 -0.387317 -5.724928 
57.337402 -59.558533 483.023499 3.110757 0.108403 -5.377850 
56.837402 -60.439941 483.614197 -0.105848 -6.027624 -1.265798 
56.337402 -60.483093 483.614197 0.542728 -6.102976 -1.355409 
57.837402 -60.393921 483.614197 1.998711 -4.600677 -3.175907 
57.337402 -60.463745 483.614197 0.472221 -6.014076 -1.660919 
57.837402 -60.058533 483.332214 3.203301 -1.527252 -4.601742 
58.337402 -60.058533 483.736267 3.326048 -1.490419 -4.781104 
57.837402 -59.558533 483.402405 3.776111 0.793787 -4.957588 
58.337402 -59.558533 483.785217 3.578740 0.132966 -5.120164 
-14.832764 -71.058533 511.614197 -6.014974 -1.351536 1.159304 
-14.925781 -70.558533 511.614197 -6.087780 -0.878024 1.203584 
56.337402 -60.625488 484.114197 0.034260 -6.084708 -1.533975 
56.837402 -60.641357 484.114197 -0.274052 -5.999260 -1.762071 
57.337402 -60.674255 484.114197 0.446837 -5.886869 -1.196733 
56.337402 -60.729675 484.614197 -0.200135 -6.194149 -0.978092 
56.837402 -60.733276 484.614197 0.394078 -6.169034 -0.935450 
57.337402 -60.599915 484.614197 0.534541 -5.841698 -0.434353 
57.837402 -60.567444 484.114197 0.765353 -5.973152 -1.741911 
57.837402 -60.651794 484.614197 -0.275477 -6.196449 -0.882040 
58.337402 -60.512573 484.114197 1.314157 -4.957055 -3.269949 
58.337402 -60.693420 484.614197 -0.225148 -6.091841 -1.378663 
56.837402 -60.810242 485.114197 0.243079 -6.206593 -0.803669 
56.337402 -60.780273 485.114197 -0.133502 -6.158392 -1.093448 
57.337402 -60.771729 485.114197 0.489211 -6.144071 -0.903886 
56.337402 -60.884827 485.614197 0.409439 -6.197346 -0.896127 
56.837402 -60.872253 485.614197 0.459997 -6.169935 -1.009514 
57.337402 -60.780090 485.614197 0.669086 -6.022332 -1.170793 
57.837402 -60.759460 485.114197 -0.044094 -6.195832 -0.673404 
58.337402 -60.763367 485.114197 -0.457690 -6.162640 -1.073846 
57.837402 -60.746155 485.614197 -0.387318 -5.998006 -0.950608 
58.337402 -60.895752 485.614197 -0.747919 -5.986609 -1.376335 
58.837402 -60.558533 484.342346 2.227593 -4.001036 -3.696955 
58.837402 -60.709412 484.614197 0.870226 -5.590586 -2.101941 
59.337402 -60.558533 484.755554 2.650070 -3.808297 -4.074164 
58.837402 -60.058533 484.043396 3.452882 -0.833578 -4.688203 
58.837402 -59.558533 484.164612 3.391671 -0.216251 -5.083639 
59.337402 -60.058533 484.476624 3.284653 -1.598024 -5.040706 
59.337402 -59.558533 484.381653 3.076780 -0.413537 -5.352643 
59.837402 -59.558533 484.791077 3.910238 0.225486 -4.893840 
59.837402 -60.058533 484.753113 3.160619 -1.398478 -4.982031 
58.837402 -60.788147 485.114197 -0.042727 -6.211869 -0.891752 
59.337402 -60.807556 485.114197 0.589500 -5.707384 -1.638319 
58.837402 -60.860596 485.614197 0.530232 -6.142783 -1.186320 
59.337402 -60.798950 485.614197 -0.171006 -6.034773 -0.914550 
59.837402 -60.682739 485.114197 2.012484 -4.197136 -3.642854 
59.837402 -60.878784 485.614197 0.217426 -5.965893 -1.631216 
60.337402 -60.558533 485.304626 2.534575 -3.457852 -4.372704 
60.337402 -60.786865 485.614197 1.609385 -5.322020 -2.783659 
60.337402 -60.058533 485.065613 3.317354 -0.629571 -4.924619 
60.337402 -59.558533 485.201843 3.859817 0.752170 -4.858352 
-15.090088 -70.058533 511.114197 -6.121764 -0.619279 1.179410 
65.479980 -52.058533 511.114197 5.291722 -2.482874 2.206260 
66.844238 -63.558533 507.114197 5.105142 -3.137302 0.366926 
66.761963 -63.558533 507.614197 5.510252 -2.753021 0.768438 
-15.113647 -69.558533 511.114197 -6.189548 -0.184668 1.033307 
64.337402 -58.558533 489.637146 4.820222 1.584066 -3.670879 
64.124634 -58.058533 489.614197 5.074379 1.457129 -3.387850 
64.442505 -58.058533 490.114197 5.109458 1.721059 -3.150050 
64.016235 -57.558533 489.614197 5.026964 1.337322 -3.512417 
64.351685 -57.558533 490.114197 5.346898 1.190820 -3.031016 
64.230835 -57.058533 490.114197 5.170774 1.454070 -3.194130 
63.845215 -57.058533 489.614197 4.989207 1.499574 -3.495312 
63.714966 -56.558533 489.614197 5.321758 0.824716 -3.152838 
64.067871 -56.558533 490.114197 5.141952 1.395757 -3.319902 
64.472778 -57.058533 490.614197 5.456652 1.246237 -2.846806 
64.358276 -56.558533 490.614197 5.387904 1.385355 -2.916569 
63.689331 -56.058533 489.614197 5.387416 0.800016 -3.086034 
63.956543 -56.058533 490.114197 5.434367 0.763907 -3.046735 
64.225952 -56.058533 490.614197 5.443254 1.031193 -2.943874 
-14.964233 -70.058533 511.614197 -6.106588 -0.576690 1.339082 
-15.014893 -69.558533 511.614197 -6.154532 -0.332711 1.204778 
60.837402 -62.123352 494.114197 -0.677487 -6.221846 -0.438066 
61.337402 -62.236755 494.114197 -0.691406 -6.006781 -0.715109 
60.837402 -62.143250 494.614197 -0.505094 -6.259437 -0.189491 
61.337402 -62.188904 494.614197 -1.373881 -5.976029 -0.494205 
61.837402 -62.195740 494.114197 -0.158789 -6.110849 -1.234803 
62.337402 -62.287109 494.114197 0.254988 -5.921395 -0.766176 
61.837402 -62.323975 494.614197 -0.221703 -6.112736 -1.085622 
62.337402 -62.288574 494.614197 0.042191 -6.179565 -0.996156 
60.837402 -62.159119 495.114197 -1.194963 -6.105766 -0.507106 
61.337402 -62.341553 495.114197 -1.385997 -5.915938 -0.600791 
60.837402 -62.193115 495.614197 -1.462973 -6.104712 0.040346 
61.337402 -62.294678 495.614197 -1.046494 -6.182834 0.346967 
61.837402 -62.396912 495.114197 -0.354641 -6.187706 -0.451619 
62.337402 -62.363953 495.114197 0.003451 -6.187433 -0.893855 
61.837402 -62.362427 495.614197 -1.053034 -6.172063 0.142023 
62.337402 -62.468994 495.614197 -0.223826 -6.117716 -0.584012 
62.837402 -62.143921 494.114197 0.678669 -6.060731 -1.106649 
63.337402 -62.152771 494.114197 0.991474 -5.867518 -1.569590 
62.837402 -62.320557 494.614197 0.272138 -5.966537 -1.706073 
63.337402 -62.241272 494.614197 0.929214 -6.042113 -1.427745 
63.837402 -61.983154 494.114197 1.022880 -5.922581 -1.580909 
64.337402 -62.024048 494.114197 -0.066353 -5.857218 -1.500883 
63.837402 -62.134033 494.614197 1.436849 -5.872298 -1.703822 
64.337402 -62.012756 494.614197 -0.379308 -5.664454 -1.424677 
28.337402 -72.677185 502.114197 0.897897 -5.615677 -2.648365 
28.837402 -72.572021 502.114197 0.977169 -5.651785 -2.486442 
28.337402 -72.901306 502.614197 0.708518 -5.627355 -2.699523 
62.837402 -62.431274 495.114197 -0.051630 -6.101064 -0.547437 
63.337402 -62.355774 495.114197 0.827264 -6.120945 -1.126772 
62.837402 -62.396729 495.614197 0.184744 -6.125293 -0.699820 
63.337402 -62.419250 495.614197 0.248776 -6.236595 -0.639270 
63.837402 -62.289673 495.114197 0.812182 -6.038819 -1.441842 
64.337402 -62.284851 495.114197 0.086924 -5.952052 -1.287155 
63.837402 -62.382324 495.614197 0.920532 -6.128935 -0.889994 
64.337402 -62.275513 495.614197 0.486558 -6.097626 -0.851975 
60.837402 -62.199341 496.114197 -1.248597 -6.152385 -0.087622 
61.337402 -62.285400 496.114197 -1.273377 -6.145603 -0.087371 
60.837402 -62.197754 496.614197 -1.147931 -6.173185 0.098664 
61.337402 -62.275757 496.614197 -1.615268 -6.025889 -0.098813 
61.837402 -62.400879 496.114197 -1.037664 -6.164308 -0.546321 
62.337402 -62.458679 496.114197 -0.882437 -6.209071 -0.237378 
61.837402 -62.455444 496.614197 -1.106977 -6.096018 -0.141944 
62.337402 -62.495544 496.614197 -0.775245 -6.227446 -0.221909 
60.837402 -62.185364 497.114197 -1.280067 -6.139730 -0.178270 
61.337402 -62.315247 497.114197 -1.604660 -6.066319 -0.258760 
60.837402 -62.209534 497.614197 -1.295925 -6.142919 -0.217941 
61.337402 -62.316345 497.614197 -1.640171 -6.040211 -0.222185 
61.837402 -62.422302 497.114197 -1.020685 -6.184220 -0.162857 
62.337402 -62.499084 497.114197 -0.860648 -6.221607 -0.137062 
61.837402 -62.482300 497.614197 -1.115216 -6.109123 -0.284350 
62.337402 -62.520630 497.614197 -0.864146 -6.205427 -0.373924 
62.837402 -62.531250 496.114197 -0.028515 -6.143193 -0.894082 
63.337402 -62.484070 496.114197 0.439016 -6.173133 -1.068954 
62.837402 -62.566284 496.614197 -0.571383 -6.231109 -0.281077 
63.337402 -62.574829 496.614197 0.208290 -6.199137 -0.916952 
63.837402 -62.442688 496.114197 0.325464 -6.166608 -1.083246 
64.337402 -62.465027 496.114197 0.635843 -5.915884 -1.303797 
63.837402 -62.521606 496.614197 0.379215 -6.104493 -1.299157 
64.337402 -62.489624 496.614197 0.657630 -6.068088 -1.291496 
62.837402 -62.557556 497.114197 -0.867560 -6.198876 -0.293190 
63.337402 -62.627380 497.114197 -0.488905 -6.240787 -0.499307 
62.837402 -62.625671 497.614197 -1.031512 -6.150591 -0.551695 
63.337402 -62.663879 497.614197 -0.461981 -6.208895 -0.788355 
63.837402 -62.660889 497.114197 -0.198195 -6.171024 -0.981187 
64.337402 -62.667114 497.114197 0.136216 -6.035120 -1.618753 
63.837402 -62.690491 497.614197 -0.398473 -6.193362 -0.786129 
64.337402 -62.749817 497.614197 -0.400280 -6.224124 -0.585653 
64.615112 -61.058533 490.114197 4.176808 -3.077729 -2.426295 
64.698120 -60.558533 490.114197 5.510760 -0.778588 -2.912331 
64.874512 -61.058533 490.614197 4.337418 -3.064062 -2.181287 
64.967163 -60.558533 490.614197 5.548284 -0.878352 -2.800587 
64.770508 -60.058533 490.114197 5.444042 -0.198468 -3.049294 
64.738037 -59.558533 490.114197 5.499177 0.442967 -2.997408 
65.027466 -60.058533 490.614197 5.564181 -0.370240 -2.867249 
65.032104 -59.558533 490.614197 5.436756 0.488930 -3.054708 
64.837402 -61.260620 491.114197 3.132457 -5.081018 -1.902952 
65.094849 -61.058533 491.114197 4.645415 -2.898741 -2.478334 
65.224121 -60.558533 491.114197 5.638163 -0.951770 -2.487098 
64.837402 -61.448425 491.614197 2.031015 -5.608761 -1.020610 
65.436279 -61.058533 491.614197 4.398908 -2.148488 -2.200711 
65.411499 -60.558533 491.614197 5.704762 -0.520178 -2.539201 
65.265137 -60.058533 491.114197 5.659510 -0.633345 -2.649640 
65.311768 -59.558533 491.114197 5.441882 0.336403 -3.021132 
65.487915 -60.058533 491.614197 5.647655 -0.963387 -2.575205 
65.583740 -59.558533 491.614197 5.601569 -0.164127 -2.656801 
64.837402 -61.537964 492.614197 1.021501 -6.096665 -0.972249 
64.837402 -61.623413 493.114197 0.603103 -6.120827 -1.166735 
65.337402 -61.486694 492.614197 2.390011 -5.304862 -1.436103 
65.337402 -61.594971 493.114197 1.960440 -5.616048 -1.046936 
64.837402 -61.754761 493.614197 1.039099 -5.939892 -1.651276 
65.337402 -61.593567 493.614197 1.936073 -5.911290 -0.535087 
64.837402 -61.474792 492.114197 1.464583 -6.038271 -0.831349 
65.337402 -61.289368 492.114197 3.208018 -5.089403 -1.617615 
65.606689 -61.058533 492.114197 4.859488 -2.528232 -2.134420 
65.634033 -60.558533 492.114197 5.497111 -0.679249 -2.888037 
65.835449 -61.058533 492.614197 4.751200 -2.968678 -1.992572 
65.932983 -60.558533 492.614197 5.286589 -0.980378 -3.238008 
65.738525 -60.058533 492.114197 5.450715 -0.884756 -2.990541 
65.796509 -59.558533 492.114197 5.671720 -0.037035 -2.652462 
66.036865 -60.058533 492.614197 5.510263 -0.420505 -2.898057 
66.021973 -59.558533 492.614197 5.717792 0.470946 -2.543134 
65.837402 -61.213928 493.114197 4.139607 -4.207043 -2.011784 
66.265991 -60.558533 493.114197 5.355541 -1.118413 -2.690061 
65.837402 -61.458923 493.614197 2.554470 -5.382341 -1.332866 
66.376465 -61.058533 493.614197 4.412607 -2.851958 -2.779041 
66.253052 -60.058533 493.114197 5.713085 0.023795 -2.607214 
66.247925 -59.558533 493.114197 5.677475 0.459242 -2.635441 
66.462524 -60.558533 493.614197 5.752466 -0.540826 -2.450738 
66.509644 -60.058533 493.614197 5.805356 -0.040443 -2.204970 
66.483032 -59.558533 493.614197 5.790627 0.302617 -2.369819 
56.837402 -61.687927 498.114197 -0.419670 -6.236388 -0.623642 
57.337402 -61.736084 498.114197 -0.591970 -6.190099 -0.767107 
56.837402 -61.733154 498.614197 -0.366970 -6.242205 -0.610830 
57.337402 -61.755005 498.614197 -0.707553 -6.164785 -0.731574 
57.837402 -61.774719 498.114197 -0.845025 -6.190324 -0.567971 
58.337402 -61.880493 498.114197 -0.945002 -6.165671 -0.224752 
57.837402 -61.828918 498.614197 -0.591615 -6.194333 -0.846383 
58.337402 -61.863953 498.614197 -0.771850 -6.169604 -0.584235 
56.837402 -61.788757 499.114197 -0.624375 -6.207049 -0.734942 
57.337402 -61.862366 499.114197 -0.720375 -6.166306 -0.737926 
56.837402 -61.837280 499.614197 -0.493597 -6.107177 -1.181759 
57.337402 -61.894653 499.614197 -0.422307 -6.201248 -0.857999 
57.837402 -61.913269 499.114197 -0.561355 -6.207103 -0.397048 
58.337402 -61.952881 499.114197 -0.759445 -6.186840 -0.721949 
57.837402 -61.893616 499.614197 -0.552038 -6.105101 -0.766357 
58.337402 -61.995667 499.614197 -1.080720 -6.123552 -0.861989 
58.837402 -61.925964 498.114197 -0.495579 -6.243862 -0.380443 
59.337402 -61.948914 498.114197 -0.732007 -6.189519 -0.621942 
58.837402 -61.953308 498.614197 -0.978007 -6.166671 -0.671372 
59.337402 -62.038330 498.614197 -0.767889 -6.171340 -0.682411 
59.837402 -62.035583 498.114197 -1.218288 -6.138548 -0.162106 
60.337402 -62.127380 498.114197 -0.974410 -6.200681 -0.146496 
59.837402 -62.087585 498.614197 -0.829733 -6.203618 -0.523406 
60.337402 -62.157227 498.614197 -0.743266 -6.231196 -0.243446 
58.837402 -62.019348 499.114197 -0.724531 -6.192395 -0.723696 
59.337402 -62.034973 499.114197 -0.579757 -6.161145 -0.569212 
59.337402 -62.134155 499.614197 -0.683167 -6.179748 -0.873590 
58.837402 -62.070068 499.614197 -0.837816 -6.157046 -0.895076 
59.837402 -62.116333 499.114197 -0.765589 -6.192585 -0.645748 
60.337402 -62.160034 499.114197 -1.106265 -6.045269 -0.780633 
59.837402 -62.206726 499.614197 -0.774877 -6.168936 -0.775963 
60.337402 -62.264709 499.614197 -1.395523 -5.988500 -1.181311 
56.837402 -62.028625 500.114197 -0.364198 -5.884302 -1.881617 
57.337402 -61.989014 500.114197 -0.019058 -6.113230 -1.382177 
56.837402 -62.159729 500.614197 -0.475624 -5.988281 -1.145649 
57.337402 -62.097595 500.614197 0.363207 -6.164295 -1.118419 
57.837402 -62.019592 500.114197 -0.502379 -6.154413 -1.127536 
58.337402 -62.093933 500.114197 -0.946054 -6.142770 -0.749373 
58.337402 -62.112305 500.614197 -0.855819 -6.068082 -1.003784 
57.837402 -62.100647 500.614197 -0.160738 -6.187559 -1.078100 
56.837402 -62.214478 501.114197 -0.177701 -6.201843 -0.473780 
57.337402 -62.170410 501.114197 0.053155 -6.175387 -1.027251 
56.837402 -62.236389 501.614197 -0.647524 -6.213117 -0.597784 
57.337402 -62.288696 501.614197 -0.483090 -6.146399 -1.094555 
57.837402 -62.191467 501.114197 -0.382339 -6.129847 -1.301927 
58.337402 -62.246216 501.114197 -0.816563 -6.076850 -1.361612 
57.837402 -62.299561 501.614197 -0.364614 -6.136139 -1.283518 
58.337402 -62.346130 501.614197 -0.838457 -6.117816 -1.112756 
58.837402 -62.166504 500.114197 -0.647248 -6.170946 -0.818267 
59.337402 -62.174377 500.114197 -0.541125 -6.146897 -0.930998 
58.837402 -62.228149 500.614197 -1.016273 -6.096958 -1.098859 
59.337402 -62.309387 500.614197 -1.121081 -5.994164 -1.493235 
59.837402 -62.233582 500.114197 -1.178645 -5.918794 -1.310108 
60.337402 -62.388489 500.114197 -1.385862 -5.994957 -1.145918 
59.837402 -62.425842 500.614197 -0.855970 -6.003005 -1.158605 
60.337402 -62.429077 500.614197 -0.685326 -6.170145 -0.630124 
58.837402 -62.316406 501.114197 -1.044400 -6.037849 -1.343826 
59.337402 -62.412720 501.114197 -0.700270 -6.156995 -0.839266 
58.837402 -62.458496 501.614197 -0.645079 -6.079925 -0.771340 
59.337402 -62.441833 501.614197 -0.487104 -6.173938 -0.722963 
59.837402 -62.436584 501.114197 -0.564997 -6.216168 -0.502370 
60.337402 -62.489929 501.114197 -0.880495 -6.121730 -0.931195 
59.837402 -62.521240 501.614197 -0.898404 -6.068538 -1.338252 
60.337402 -62.595093 501.614197 -1.113382 -6.082718 -1.041319 
67.110718 -59.058533 502.114197 6.162188 1.176866 -0.035998 
66.987915 -58.558533 502.114197 6.160705 1.034235 -0.001607 
67.107666 -59.058533 502.614197 6.148079 1.281740 -0.023046 
67.032715 -58.558533 502.614197 6.192119 0.968932 -0.109603 
66.922974 -58.058533 502.114197 6.228240 0.550778 -0.001020 
66.910400 -57.558533 502.114197 6.264879 -0.102344 -0.098724 
66.945557 -58.058533 502.614197 6.239380 0.536027 -0.260798 
66.932861 -57.558533 502.614197 6.273878 -0.060155 -0.212944 
67.101440 -59.058533 503.114197 6.129753 1.343464 -0.018829 
67.011108 -58.558533 503.114197 6.212535 0.872650 0.016542 
67.117676 -59.058533 503.614197 6.150046 1.280690 -0.078770 
67.020386 -58.558533 503.614197 6.207797 0.941506 -0.101860 
66.978149 -58.058533 503.114197 6.263896 0.379503 -0.038464 
66.945557 -57.558533 503.114197 6.276021 0.055831 -0.124156 
66.956665 -58.058533 503.614197 6.245504 0.373210 -0.144346 
66.962158 -57.558533 503.614197 6.277677 -0.121195 -0.204765 
66.949463 -57.058533 502.114197 6.265896 -0.125708 -0.235439 
66.933350 -56.558533 502.114197 6.206008 -0.463888 -0.107535 
66.960693 -57.058533 502.614197 6.269874 -0.332841 -0.150835 
66.999756 -56.558533 502.614197 6.238931 -0.401419 -0.395806 
67.026245 -56.058533 502.114197 6.180978 -1.115830 -0.104084 
67.025635 -56.058533 502.614197 6.199432 -0.872019 -0.303154 
66.959717 -57.058533 503.114197 6.270103 -0.338688 -0.098186 
66.996582 -56.558533 503.114197 6.214125 -0.685826 -0.389776 
66.972534 -57.058533 503.614197 6.210584 -0.605701 -0.417102 
67.078003 -56.558533 503.614197 6.158062 -0.770813 -0.478890 
28.837402 -72.845337 502.614197 0.541637 -5.523422 -2.945018 
67.079590 -56.058533 503.114197 6.197706 -0.854646 -0.505634 
67.112305 -56.058533 503.614197 6.235953 -0.632699 -0.214914 
67.113770 -59.058533 504.114197 6.097360 1.415562 -0.251942 
67.018433 -58.558533 504.114197 6.189157 0.906402 -0.202943 
67.142578 -59.058533 504.614197 6.142218 1.282781 0.038529 
67.070923 -58.558533 504.614197 6.150948 1.115994 -0.073540 
66.984131 -58.058533 504.114197 6.269774 0.363794 0.022696 
66.963623 -57.558533 504.114197 6.269826 -0.170688 0.134206 
66.969238 -58.058533 504.614197 6.230496 0.708499 0.207245 
66.939331 -57.558533 504.614197 6.251917 -0.206112 0.162369 
67.115479 -59.058533 505.114197 6.127382 1.319539 0.328782 
67.034058 -58.558533 505.114197 6.144715 1.113238 0.637558 
67.106445 -59.058533 505.614197 6.078676 1.581406 0.114271 
66.966431 -58.558533 505.614197 6.140523 1.093836 0.276824 
66.934814 -58.058533 505.114197 6.219842 0.500177 0.286221 
66.948486 -57.558533 505.114197 6.270908 -0.363979 -0.036933 
66.926880 -58.058533 505.614197 6.270671 0.129490 0.092041 
66.946777 -57.558533 505.614197 6.276045 -0.200889 0.154936 
67.010010 -57.058533 504.114197 6.245452 -0.643172 0.020883 
67.062256 -56.558533 504.114197 6.255042 -0.479846 0.273441 
66.991455 -57.058533 504.614197 6.257512 -0.459395 0.253653 
67.025635 -56.558533 504.614197 6.228273 -0.529164 0.624680 
67.077759 -56.058533 504.114197 6.176805 -0.818338 0.220980 
67.076416 -56.058533 504.614197 6.204504 -0.922307 0.232627 
66.991333 -57.058533 505.114197 6.261523 -0.113370 0.073032 
66.961914 -56.558533 505.114197 6.197168 -0.414668 0.239132 
66.960449 -57.058533 505.614197 6.264147 -0.145280 0.457963 
66.969971 -56.558533 505.614197 6.264005 -0.362481 0.200603 
67.072876 -56.058533 505.114197 6.166004 -0.957144 0.399421 
67.024170 -56.058533 505.614197 6.209860 -0.888286 0.067560 
64.837402 -64.219910 509.614197 -1.689877 -5.890932 -1.371403 
64.837402 -64.333130 510.114197 -1.270857 -6.008145 -0.136444 
65.337402 -64.373352 509.614197 0.049456 -5.942822 -0.541690 
65.337402 -64.378967 510.114197 0.690105 -6.054703 -0.337611 
64.837402 -64.272278 510.614197 -1.693361 -5.619601 -1.158242 
65.337402 -64.483032 510.614197 0.933522 -5.339279 -0.496555 
65.837402 -64.203003 509.614197 2.608659 -5.681770 0.393451 
66.056030 -64.058533 510.114197 4.255565 -3.924234 0.797106 
66.383789 -63.558533 509.614197 5.708313 -2.201019 1.014766 
66.268921 -63.558533 510.114197 5.742497 -1.846810 1.598608 
66.140869 -64.058533 509.114197 4.224395 -4.422770 0.546696 
65.909424 -64.058533 510.614197 4.662801 -3.484176 1.531630 
66.097900 -63.558533 510.614197 5.685989 -2.012612 1.744050 
64.792725 -64.558533 511.114197 -0.993826 -5.146422 -0.662862 
65.337402 -64.408997 511.114197 2.717615 -5.508616 0.249865 
64.837402 -64.462036 511.614197 -0.399466 -6.230029 0.354184 
65.337402 -64.503662 511.614197 2.028793 -4.733606 0.280906 
65.718750 -64.058533 511.114197 5.010585 -3.551141 0.985170 
65.964478 -63.558533 511.114197 5.730275 -1.975162 1.527309 
65.665894 -64.058533 511.614197 5.370720 -2.969454 0.836564 
65.822266 -63.558533 511.614197 5.923293 -1.572363 1.365525 
64.837402 -64.421021 512.114197 0.688553 -6.198351 0.584623 
65.337402 -64.319336 512.114197 3.089390 -5.087721 1.214280 
64.837402 -64.385071 512.614197 0.971366 -6.173513 -0.075636 
64.837402 -64.413513 513.114197 2.199376 -5.728416 0.348227 
65.479370 -64.058533 512.614197 4.898576 -3.112697 1.331935 
65.605591 -64.058533 512.114197 5.117022 -2.935292 1.004956 
65.724609 -63.558533 512.114197 5.979692 -1.309557 1.390894 
65.595337 -63.558533 512.614197 5.967696 -1.260483 1.505469 
65.362061 -64.058533 513.114197 4.708701 -3.059361 1.375595 
64.837402 -64.378662 513.614197 2.751702 -5.284845 0.669568 
65.163940 -64.058533 513.614197 5.036412 -2.892966 1.816116 
65.468384 -63.558533 513.114197 5.901860 -1.272953 1.719094 
65.312988 -63.558533 513.614197 5.703392 -1.492534 2.107230 
-12.128418 -60.058533 500.614197 -5.151750 2.611783 -2.401925 
66.995117 -63.058533 506.114197 6.140848 -1.293321 -0.186590 
67.094727 -62.558533 506.114197 6.174285 -0.534628 -0.047072 
67.012695 -63.058533 506.614197 6.135343 -1.222329 0.048480 
67.051147 -62.558533 506.614197 6.263471 -0.350821 0.054743 
67.074707 -62.058533 506.114197 6.233021 -0.359221 0.184783 
67.136719 -61.558533 506.114197 6.259276 -0.485900 -0.135943 
67.094971 -62.058533 506.614197 6.255068 -0.552019 0.007771 
67.140625 -61.558533 506.614197 6.246167 -0.625542 0.144251 
66.996704 -63.058533 507.114197 6.044299 -1.426892 0.605271 
67.080322 -62.558533 507.114197 6.189146 -0.538822 0.272718 
66.906128 -63.058533 507.614197 6.060100 -1.394030 0.856727 
67.004150 -62.558533 507.614197 6.128253 -1.019124 0.907781 
67.082886 -62.058533 507.114197 6.272720 -0.306872 0.086034 
67.107300 -61.558533 507.114197 6.240708 -0.547857 0.036384 
67.059326 -62.058533 507.614197 6.231282 -0.682708 0.363337 
67.130249 -61.558533 507.614197 6.239358 -0.546270 0.183443 
67.172363 -61.058533 506.114197 6.226281 -0.758233 -0.131763 
67.247681 -60.558533 506.114197 6.235328 -0.240153 0.113093 
67.201416 -61.058533 506.614197 6.232988 -0.541081 0.143314 
67.212402 -60.558533 506.614197 6.274763 -0.114130 0.260297 
67.217529 -60.058533 506.114197 6.270548 0.265627 0.213159 
67.193970 -59.558533 506.114197 6.190918 0.826382 0.479571 
67.223022 -60.058533 506.614197 6.227864 0.385797 0.268153 
67.124634 -59.558533 506.614197 6.145819 1.109962 0.371338 
67.164673 -61.058533 507.114197 6.257848 -0.494707 0.224595 
67.202759 -60.558533 507.114197 6.239031 0.010896 0.436324 
67.149170 -61.058533 507.614197 6.252059 -0.105359 0.519719 
67.145142 -60.558533 507.614197 6.260449 -0.007849 0.481687 
67.159790 -60.058533 507.114197 6.241715 0.310297 0.523104 
67.140625 -59.558533 507.114197 6.175740 0.909892 0.275887 
67.151245 -60.058533 507.614197 6.189407 0.452118 0.613960 
67.076294 -59.558533 507.614197 6.131688 0.870478 1.036338 
66.866943 -63.058533 508.114197 5.979414 -1.306353 0.992967 
66.701294 -63.558533 508.114197 5.453742 -2.718693 0.973628 
66.918701 -62.558533 508.114197 6.085807 -1.150031 0.992412 
66.731934 -63.058533 508.614197 5.922754 -1.552937 1.382563 
66.575317 -63.558533 508.614197 5.543436 -2.550824 1.307875 
66.825439 -62.558533 508.614197 6.037386 -1.297734 1.084903 
67.041016 -62.058533 508.114197 6.136433 -0.981866 0.703465 
67.098999 -61.558533 508.114197 6.189209 -0.333988 0.760241 
66.962891 -62.058533 508.614197 6.072450 -1.102582 1.042189 
67.012329 -61.558533 508.614197 6.185808 -0.627733 0.881317 
66.620850 -63.058533 509.114197 5.898665 -1.674255 1.363229 
66.472534 -63.558533 509.114197 5.556810 -2.548570 1.115757 
66.754272 -62.558533 509.114197 5.992635 -1.465864 1.160893 
66.498657 -63.058533 509.614197 5.932588 -1.583698 1.322638 
66.644409 -62.558533 509.614197 5.946832 -1.461704 1.377356 
66.873047 -62.058533 509.114197 6.037487 -1.076693 1.252800 
66.937500 -61.558533 509.114197 6.091344 -0.549704 1.340305 
66.740967 -62.058533 509.614197 5.986888 -0.911017 1.656668 
66.805054 -61.558533 509.614197 6.029165 -0.398020 1.666262 
67.083252 -61.058533 508.114197 6.237970 -0.219707 0.494235 
67.124878 -60.558533 508.114197 6.160601 0.226576 0.785081 
67.078979 -61.058533 508.614197 6.098885 -0.067476 0.889409 
67.006714 -60.558533 508.614197 6.031674 0.870758 1.526424 
67.053955 -60.058533 508.114197 6.066596 0.945332 1.321956 
66.965088 -59.558533 508.114197 6.092455 0.833534 1.263035 
66.937134 -60.058533 508.614197 6.080500 0.791417 1.366263 
66.875854 -59.558533 508.614197 6.024741 0.917217 1.469661 
66.950073 -61.058533 509.114197 6.027487 0.407260 1.625329 
66.869141 -60.558533 509.114197 5.996242 0.788697 1.692002 
66.809204 -61.058533 509.614197 5.969741 0.454777 1.800798 
66.712524 -60.558533 509.614197 5.992551 0.773612 1.636279 
66.829956 -60.058533 509.114197 5.985300 0.829896 1.623884 
66.713135 -59.558533 509.114197 5.891979 1.148067 1.824980 
66.681396 -60.058533 509.614197 5.911513 0.887382 1.866005 
66.584839 -59.558533 509.614197 5.816949 1.382192 1.850297 
60.837402 -65.080078 514.114197 0.941995 -6.157359 -0.764818 
60.337402 -65.162842 514.114197 0.709445 -6.202184 -0.224804 
61.337402 -64.984619 514.114197 1.187343 -6.052957 -1.170633 
60.337402 -65.146179 514.614197 0.678497 -6.042199 -0.917648 
60.837402 -65.169373 514.614197 0.551085 -6.139800 -0.856535 
61.337402 -65.078247 514.614197 1.041133 -6.109573 -1.013871 
61.837402 -64.920898 514.114197 0.680398 -6.078787 -1.271321 
62.337402 -64.850952 514.114197 1.097830 -6.149453 -0.569304 
61.837402 -64.985046 514.614197 0.838686 -6.074636 -1.255034 
62.337402 -64.890747 514.614197 0.224424 -5.674854 -1.979285 
60.337402 -65.264282 515.114197 0.776808 -6.186469 -0.691123 
60.837402 -65.197510 515.114197 0.713950 -6.222751 -0.451254 
61.337402 -65.166687 515.114197 0.894230 -6.118000 -0.291180 
60.337402 -65.300293 515.614197 0.887003 -6.190335 -0.594030 
60.837402 -65.224731 515.614197 0.802936 -6.177756 -0.626545 
61.337402 -65.110413 515.614197 1.345737 -5.869674 -0.869137 
61.837402 -65.080444 515.114197 0.108243 -6.217297 -0.063962 
62.337402 -65.149170 515.114197 0.583511 -5.643600 -0.102652 
61.837402 -64.995483 515.614197 0.778847 -5.906865 -0.171886 
62.337402 -65.022217 515.614197 0.642274 -6.130077 0.936607 
62.837402 -64.729675 514.114197 0.159878 -5.785863 -1.500870 
63.337402 -64.820557 514.114197 0.310454 -5.853665 -1.824714 
62.837402 -65.003235 514.614197 -0.056107 -5.774997 -1.363173 
63.337402 -64.961060 514.614197 1.421103 -5.758013 -0.184085 
63.837402 -64.659302 514.114197 2.047062 -5.880742 -0.509096 
64.337402 -64.508545 514.114197 1.553139 -6.053339 -0.550172 
63.837402 -64.739929 514.614197 2.304930 -5.797730 -0.003145 
64.337402 -64.537842 514.614197 3.263593 -4.937512 0.978385 
62.837402 -64.937927 515.114197 1.503001 -5.995460 0.730734 
63.337402 -64.856323 515.114197 1.772614 -5.838406 1.311825 
62.837402 -64.916260 515.614197 1.736597 -5.866796 1.052750 
63.337402 -64.682068 515.614197 2.093834 -5.704372 1.128306 
63.837402 -64.683899 515.114197 2.528623 -5.507692 1.269133 
63.837402 -64.554871 515.614197 2.714884 -5.398187 1.335045 
64.337402 -64.326843 515.114197 4.305421 -4.107965 1.790615 
63.837402 -64.410400 516.114197 3.572607 -4.119292 2.351178 
64.345703 -64.058533 515.614197 5.062889 -1.975159 2.413581 
62.995605 -47.058533 490.114197 5.529513 0.472964 -2.905932 
65.711060 -51.558533 511.114197 5.166957 -2.649246 2.212317 
65.340942 -52.058533 511.614197 5.330035 -2.598106 1.990600 
60.337402 -65.359436 516.114197 0.966107 -6.161444 -0.758494 
60.837402 -65.277649 516.114197 0.209706 -6.168643 -0.778128 
61.337402 -65.324829 516.114197 0.985853 -5.808813 -0.673452 
60.837402 -65.351135 516.614197 0.871373 -6.184536 0.013048 
60.337402 -65.410767 516.614197 1.071470 -6.175472 -0.348647 
61.337402 -65.248596 516.614197 1.828816 -5.935046 0.780336 
61.837402 -65.168335 516.114197 2.088915 -5.619163 -0.225845 
62.337402 -64.970276 516.114197 1.959187 -5.831100 0.816700 
61.837402 -65.017456 516.614197 2.324110 -5.658777 1.253344 
62.337402 -64.873474 516.614197 2.061753 -5.785966 1.209391 
60.337402 -65.410461 517.114197 1.324093 -6.128136 -0.115542 
60.837402 -65.306763 517.114197 1.470804 -6.031412 0.817797 
61.337402 -65.214172 517.114197 1.924951 -5.720520 1.059733 
60.337402 -65.447266 517.614197 2.008898 -5.781135 0.542091 
60.837402 -65.167542 517.614197 2.233462 -5.629141 1.217424 
61.337402 -65.040405 517.614197 1.790887 -5.808619 1.553434 
61.837402 -64.926819 517.114197 2.594779 -5.616801 0.888089 
62.337402 -64.747253 517.114197 2.049454 -5.823943 1.146862 
61.837402 -64.859131 517.614197 2.340590 -5.709678 1.160265 
62.337402 -64.652832 517.614197 2.673625 -5.439856 1.536166 
62.837402 -64.715393 516.114197 1.700010 -5.662615 1.391808 
63.337402 -64.641846 516.114197 2.020585 -5.642135 1.549561 
62.837402 -64.674805 516.614197 2.277174 -5.735053 1.072416 
63.337402 -64.414795 516.614197 3.240915 -4.764536 2.427087 
64.039063 -64.058533 516.114197 5.114277 -1.875064 2.986573 
64.381104 -63.558533 515.614197 5.549292 -1.074418 2.699842 
64.132202 -63.558533 516.114197 5.450232 -1.316236 2.821766 
63.732178 -64.058533 516.614197 4.624045 -2.649752 3.040550 
63.871094 -63.558533 516.614197 5.326306 -1.325521 3.051818 
62.837402 -64.582275 517.114197 2.978122 -5.028382 1.728215 
63.447266 -64.058533 517.114197 4.291614 -2.972690 2.841577 
63.053345 -64.058533 517.614197 4.447691 -3.016939 3.105725 
62.837402 -64.336121 517.614197 4.007925 -3.971070 2.439521 
63.272705 -63.558533 517.614197 5.119899 -1.539399 3.254575 
63.571777 -63.558533 517.114197 5.270553 -1.261670 3.177034 
56.837402 -65.922058 517.614197 0.969712 -6.170953 0.533624 
56.337402 -66.008057 518.114197 1.647329 -6.050523 0.203008 
56.837402 -65.832092 518.114197 1.057398 -5.986817 0.195764 
57.337402 -65.900146 517.614197 1.014032 -5.979428 0.373521 
57.337402 -65.798523 518.114197 0.703796 -6.183090 -0.015688 
56.337402 -65.992676 518.614197 1.226902 -6.151343 0.148857 
56.837402 -65.913635 518.614197 0.804820 -6.200884 -0.444398 
57.337402 -65.857361 518.614197 0.946194 -6.164758 0.010118 
57.837402 -65.709717 517.614197 0.661218 -5.988860 0.385878 
57.837402 -65.762817 518.114197 0.557480 -6.241162 -0.258869 
58.337402 -65.742798 517.614197 0.722446 -6.180319 0.202595 
58.337402 -65.701050 518.114197 1.163627 -6.158343 0.328546 
57.837402 -65.759277 518.614197 1.032969 -6.174890 0.440556 
58.337402 -65.689941 518.614197 1.279462 -6.093483 0.416649 
-12.785278 -61.058533 501.114197 -5.415805 1.789356 -2.633392 
56.837402 -65.909729 519.114197 1.108904 -6.116949 0.629273 
56.337402 -65.958435 519.114197 0.907849 -6.192152 0.223300 
57.337402 -65.799927 519.114197 1.062699 -6.155731 0.549222 
56.337402 -65.966492 519.614197 1.114599 -6.101206 0.557349 
56.837402 -65.800293 519.614197 1.490993 -5.979515 0.713296 
57.337402 -65.762695 519.614197 0.302615 -6.185904 0.970394 
57.837402 -65.694885 519.114197 1.097796 -6.127550 0.037505 
58.337402 -65.618530 519.114197 1.103017 -6.125690 0.752721 
57.837402 -65.751404 519.614197 1.237252 -5.877913 0.712858 
58.337402 -65.528931 519.614197 1.882415 -5.859622 1.089129 
58.837402 -65.624207 517.614197 0.647011 -6.170004 0.581759 
58.837402 -65.572815 518.114197 0.973116 -6.097317 0.845371 
59.337402 -65.638611 517.614197 0.445217 -6.207727 0.155854 
59.337402 -65.583313 518.114197 0.072635 -6.045006 1.441244 
58.837402 -65.501282 518.614197 1.732824 -5.940994 0.132448 
59.837402 -65.558533 518.123596 1.275378 -5.739567 1.250242 
59.837402 -65.550903 517.614197 1.220061 -6.159695 -0.146582 
58.837402 -65.550110 519.114197 1.232127 -6.041372 0.628100 
59.337402 -65.394714 518.614197 0.775481 -5.996736 0.610025 
60.337402 -65.284180 518.114197 2.532583 -5.540049 1.117244 
59.837402 -65.327576 518.614197 1.017074 -5.900047 1.426376 
60.337402 -65.252258 518.614197 2.072344 -5.761133 1.100258 
59.337402 -65.463989 519.114197 1.429121 -5.830944 0.757800 
58.837402 -65.406311 519.614197 1.479014 -5.900919 1.545234 
59.337402 -65.267090 519.614197 1.570947 -5.825301 1.684491 
59.837402 -65.283875 519.114197 1.791044 -5.871061 1.253289 
60.337402 -65.117554 519.114197 2.147807 -5.738400 1.366008 
59.837402 -65.153015 519.614197 1.464888 -5.969830 1.288054 
60.337402 -65.026062 519.614197 2.366557 -5.500787 1.542421 
56.837402 -65.801208 520.114197 1.462351 -5.937069 0.917939 
56.337402 -65.842468 520.114197 1.136655 -6.008993 1.150971 
57.337402 -65.642212 520.114197 0.713258 -6.105546 0.780179 
56.837402 -65.656311 520.614197 0.894126 -6.078016 0.902254 
57.337402 -65.663025 520.614197 0.467347 -6.187938 0.238345 
57.837402 -65.626404 520.114197 1.106744 -6.072420 0.933504 
57.837402 -65.579834 520.614197 1.500263 -5.989625 0.769804 
56.837402 -65.611450 521.114197 0.786458 -6.167463 0.306209 
57.337402 -65.603271 521.114197 0.731751 -6.198471 0.456895 
29.337402 -72.482971 502.114197 0.911085 -5.422749 -2.961006 
29.337402 -72.802917 502.614197 0.613716 -5.449017 -3.054621 
58.337402 -65.476379 520.114197 1.963009 -5.916873 0.749144 
58.337402 -65.392822 520.614197 2.010360 -5.853543 1.071639 
57.837402 -65.477234 521.114197 2.001215 -5.843999 1.099384 
58.337402 -65.286682 521.114197 1.973704 -5.874917 0.903271 
58.837402 -65.304138 520.114197 1.817957 -5.933995 0.951405 
59.337402 -65.155212 520.114197 1.458560 -6.000173 1.069833 
58.837402 -65.243103 520.614197 1.878321 -5.878932 1.097103 
59.337402 -65.080322 520.614197 1.862777 -5.856286 1.266258 
59.837402 -65.063538 520.114197 1.843699 -5.744728 1.504415 
60.337402 -64.821106 520.114197 2.986155 -5.064169 2.176257 
59.837402 -64.890076 520.614197 2.682109 -5.321062 1.925673 
60.337402 -64.586060 520.614197 3.555166 -4.501534 2.466360 
58.837402 -65.109436 521.114197 1.912486 -5.873316 0.864926 
59.337402 -64.964844 521.114197 2.125794 -5.773426 1.241838 
59.337402 -64.840698 521.614197 3.114966 -5.051744 1.909451 
60.023315 -64.558533 521.114197 3.709848 -4.501495 2.273192 
60.874634 -64.058533 520.614197 4.460253 -3.015003 2.963948 
65.563110 -51.558533 511.614197 5.291980 -2.798698 1.881809 
-12.628662 -60.558533 501.114197 -5.423543 2.025121 -2.394361 
63.062622 -47.558533 490.114197 5.674658 0.785313 -2.575791 
62.957275 -46.558533 490.114197 5.221121 0.062009 -3.416891 
-15.346924 -69.058533 510.114197 -6.177926 -0.382943 0.802413 
-15.330566 -68.558533 510.114197 -6.241096 0.245403 0.626143 
-15.214722 -69.058533 510.614197 -6.057752 -0.762941 1.379229 
-15.309937 -68.558533 510.614197 -6.078275 -0.075536 1.029809 
-15.322266 -68.058533 510.114197 -6.224119 0.244495 0.803679 
29.837402 -72.440979 502.114197 0.585385 -5.296537 -3.324579 
29.837402 -72.738525 502.614197 0.570387 -5.471150 -3.030595 
-15.253174 -68.058533 510.614197 -6.202125 0.487852 0.865877 
-15.118652 -69.058533 511.114197 -6.142141 -0.334753 1.246164 
64.837402 -63.933350 508.114197 -0.334582 -6.176707 -0.719152 
-15.151001 -68.558533 511.114197 -6.054181 -0.320057 1.632592 
64.337402 -63.920471 508.114197 -0.004150 -6.164672 -0.353105 
65.337402 -63.992615 508.114197 -0.816215 -5.972862 -1.159122 
-15.025146 -69.058533 511.614197 -6.176455 -0.145598 1.142701 
65.337402 -64.259460 508.614197 -1.294624 -5.528270 -1.415136 
64.837402 -64.024719 508.614197 -1.007014 -6.022161 -0.990155 
64.337402 -64.047974 508.614197 -0.068018 -6.151778 -0.730585 
30.337402 -72.693665 502.614197 0.262204 -5.393381 -3.205467 
65.837402 -64.027771 508.114197 -0.463486 -5.922377 -1.086175 
66.337402 -64.057861 508.114197 2.845266 -4.898931 0.413955 
29.837402 -71.713257 501.114197 0.616809 -4.719403 -4.019332 
65.837402 -64.270508 508.614197 1.202449 -5.570760 -0.827118 
-15.039795 -68.558533 511.614197 -6.156626 -0.145592 1.239122 
66.337402 -63.944336 508.614197 4.457236 -4.124613 1.000600 
-15.171509 -68.058533 511.114197 -6.075451 0.395661 1.439522 
28.837402 -72.401978 501.614197 0.553607 -5.072916 -3.257206 
-15.038818 -68.058533 511.614197 -6.074291 0.378520 1.537269 
32.337402 -65.184692 493.114197 -1.630305 -3.950704 -4.520545 
-14.733032 -71.058533 512.114197 -6.002693 -1.340584 1.221662 
-14.813965 -70.558533 512.114197 -6.099686 -0.883912 1.213519 
-14.626099 -71.058533 512.614197 -5.994848 -1.313730 1.320909 
-14.720825 -70.558533 512.614197 -6.049726 -0.816699 1.404792 
60.124146 -51.058533 485.114197 4.734983 0.645724 -3.949880 
60.586914 -51.558533 485.614197 4.843248 0.438213 -3.916136 
60.091919 -51.558533 485.114197 4.579946 0.113181 -4.270278 
65.337402 -64.276794 509.114197 -1.052667 -6.061552 -0.759026 
64.837402 -64.083740 509.114197 -1.522818 -5.914298 -1.044680 
64.337402 -64.029480 509.114197 -0.008333 -6.204126 -0.431368 
-14.877808 -70.058533 512.114197 -6.120544 -0.631114 1.243963 
-14.924805 -69.558533 512.114197 -6.123803 -0.357321 1.301889 
60.284058 -55.058533 485.614197 4.977129 0.257938 -3.818491 
60.653198 -55.058533 486.114197 5.032161 0.008579 -3.742546 
60.341553 -55.558533 485.614197 4.940323 0.171433 -3.840731 
60.687866 -55.558533 486.114197 5.145055 0.279448 -3.595087 
60.282104 -54.558533 485.614197 4.868803 -0.202597 -3.951406 
60.697754 -54.558533 486.114197 4.892583 -0.370416 -3.920366 
61.040283 -55.558533 486.614197 4.917891 0.425945 -3.857455 
61.027222 -55.058533 486.614197 4.872002 -0.210925 -3.926546 
61.100830 -54.558533 486.614197 4.911782 -0.526897 -3.875280 
60.337402 -54.058533 485.605896 4.727009 -0.564719 -4.078917 
60.705444 -54.058533 486.114197 4.801420 -0.664369 -3.919024 
60.862915 -53.558533 486.114197 4.792191 -0.967337 -3.887687 
60.405396 -53.558533 485.614197 4.665317 -0.773008 -4.133209 
61.135132 -54.058533 486.614197 4.946239 -0.541110 -3.829870 
61.196289 -53.558533 486.614197 5.090423 -0.713796 -3.606110 
61.468872 -55.058533 487.114197 4.638734 -0.121846 -4.232834 
61.337402 -55.558533 486.997009 4.609355 0.512890 -4.092226 
61.487793 -54.558533 487.114197 4.778282 -0.298018 -4.062404 
61.837402 -55.058533 487.490417 4.548560 0.239915 -4.321885 
61.998535 -55.558533 487.614197 4.518260 0.371092 -4.340756 
61.937134 -54.558533 487.614197 4.832643 -0.080258 -4.007473 
61.519653 -54.058533 487.114197 4.814540 -0.393516 -4.006828 
61.568970 -53.558533 487.114197 5.004581 -0.387044 -3.772987 
61.969238 -54.058533 487.614197 5.008987 -0.085166 -3.737611 
61.939209 -53.558533 487.614197 5.123484 0.180079 -3.630687 
60.337402 -53.058533 485.441101 4.594642 -0.678861 -4.222505 
60.933594 -53.058533 486.114197 4.919453 -0.590728 -3.830261 
60.337402 -52.558533 485.388000 4.772935 -0.386406 -4.061859 
60.979980 -52.558533 486.114197 4.898942 0.376031 -3.742682 
61.278076 -53.058533 486.614197 5.169613 -0.546070 -3.519943 
61.314087 -52.558533 486.614197 5.295040 0.052073 -3.312826 
60.586914 -52.058533 485.614197 5.053020 -0.659388 -3.522610 
60.855225 -52.058533 486.114197 4.943904 -0.229868 -3.622477 
60.954956 -51.558533 486.114197 5.097119 0.140431 -3.581937 
61.312866 -52.058533 486.614197 5.255197 0.163670 -3.277598 
61.253296 -51.558533 486.614197 5.438604 0.337401 -3.121898 
61.600220 -53.058533 487.114197 5.348262 0.112305 -3.265380 
61.557739 -52.558533 487.114197 5.609031 0.317438 -2.805891 
61.907349 -53.058533 487.614197 5.147530 0.670120 -3.529103 
61.814941 -52.558533 487.614197 5.288888 0.521711 -3.278708 
61.543945 -52.058533 487.114197 5.634013 0.202624 -2.771211 
61.545166 -51.558533 487.114197 5.584715 0.383406 -2.753355 
61.799561 -52.058533 487.614197 5.379734 0.339851 -3.212676 
61.748291 -51.558533 487.614197 5.476683 0.385011 -2.973684 
62.461548 -55.558533 488.114197 4.620876 0.216597 -4.221224 
62.378052 -55.058533 488.114197 4.682550 0.601605 -4.139177 
62.336792 -54.558533 488.114197 4.764058 0.332164 -4.080554 
62.296631 -54.058533 488.114197 4.870356 0.158828 -3.931585 
62.293213 -53.558533 488.114197 4.951992 0.056392 -3.854231 
62.831665 -55.058533 488.614197 4.875160 0.685676 -3.890990 
